7.308217 2.144269 5.274757
9.148104 7.203057 16.042603
9.902038 10.808933 3.356864
7.984945 5.271036 3.939506
1.775734 4.453338 6.738533
8.139101 13.872469 4.319309
6.557883 1.245615 1.960432
2.201292 5.074466 15.278190
5.022975 0.365352 8.231806
7.199735 14.955217 6.014861
0.506620 10.368458 19.411415
9.218986 13.045248 7.148642
4.826018 0.228134 8.645567
2.329909 14.797853 19.400302
0.355940 7.140029 9.591742
1.300646 10.861574 8.348066
3.555163 10.041937 0.549441
1.228707 14.957101 8.397545
7.218426 9.453049 1.207783
4.757356 8.861523 2.677364
1.908356 13.971082 6.065795
7.867748 4.328197 10.790129
9.821953 2.850820 17.865880
5.717196 0.858862 18.839410
3.695604 6.182135 4.149090
0.928044 10.226096 4.944593
7.981663 6.532387 1.540734
0.808170 4.262983 1.039829
5.348690 2.915717 19.049575
9.596498 1.808932 10.789253
1.941139 0.761996 19.379356
7.642840 14.993781 4.518389
5.673597 5.414450 7.588523
4.453143 14.375639 6.286610
1.744535 13.516257 16.972360
0.412833 11.366955 8.380100
9.825545 13.183416 17.480244
1.415368 11.316677 4.570057
6.546066 1.678114 17.717351
0.166497 4.519079 19.444510
0.607480 6.869471 19.118152
0.811543 9.189412 13.700757
9.770153 12.402249 4.006504
2.394061 1.093119 11.994453
5.165378 9.987662 8.879900
4.273606 11.904478 11.903321
8.581729 4.386332 18.993617
4.114135 11.636197 0.042130
0.351793 13.589025 13.452035
3.267031 5.535250 7.091879
1.190407 2.841083 14.435256
2.633120 3.258967 14.230488
3.257550 10.729869 14.658458
2.416126 1.396215 2.194251
2.445315 5.371001 6.562017
8.376088 2.180799 7.533849
9.560857 13.671597 9.916439
8.391827 9.811250 4.165109
4.079336 7.800464 14.771959
5.538249 4.566313 2.803223
3.222895 7.740153 16.198481
2.790124 3.041136 10.485545
9.824416 2.573300 17.154105
3.388545 13.218462 15.620885
9.642426 8.585585 15.420478
1.918654 2.835324 5.208338
6.578741 12.472715 16.744618
6.772375 12.828384 14.981478
1.766998 2.893102 6.480295
8.710047 3.828210 12.610539
3.614208 11.057227 18.277739
1.392957 4.784767 7.652747
0.763473 7.286376 1.291091
6.060456 12.641084 3.069168
1.415044 4.697291 4.238032
6.591023 0.660629 6.216958
3.202685 0.252693 13.844248
7.251440 7.280029 6.307491
1.911851 5.089330 8.709585
1.142726 1.273894 19.043307
2.681913 7.582795 2.832237
6.690161 2.729571 14.982207
4.586893 9.691285 18.435165
5.854633 14.530972 18.689082
9.793162 14.938512 11.494413
9.651218 4.355772 8.637969
5.409723 10.074563 3.000736
3.385097 14.762202 7.677355
7.722514 0.282274 16.482322
3.307048 3.394516 2.512513
6.777783 11.288155 2.763144
4.165154 14.993909 8.003967
5.728690 8.784422 19.074064
0.917066 0.234410 15.832597
0.850689 7.386755 5.408882
0.119285 14.424197 17.823898
4.627933 13.418836 4.782842
4.205615 0.498871 5.712140
3.145840 7.179953 15.342612
4.113087 7.222660 6.194067
5.880631 0.165386 17.906560
2.644358 2.421522 13.541037
1.960216 3.575694 15.555333
6.357793 6.522387 12.790916
1.963287 5.571498 7.575348
8.196719 9.024551 13.293819
0.527128 3.861703 11.124776
4.106605 13.552399 19.077089
7.973672 12.709978 1.086705
6.494572 7.428972 7.753201
1.262884 12.581375 2.510767
0.929452 6.796505 4.982476
9.537950 8.336637 9.146215
8.260262 5.746386 3.382140
1.594333 14.061536 1.875673
2.249163 0.132157 7.999856
8.526704 11.163739 14.333545
6.286621 10.587030 8.195314
8.849260 4.242683 3.896670
9.826538 14.472987 0.134980
3.657458 10.776825 12.365903
3.144865 10.940153 14.747632
5.773665 9.733285 1.899203
1.962979 6.180184 5.242725
2.363895 8.326268 11.154743
6.652662 7.439348 10.842373
5.415909 3.168524 11.141150
8.216450 5.375137 18.763355
3.241401 13.491176 18.491591
2.049160 2.853231 19.132775
5.840179 9.465917 9.756188
7.608676 14.913326 18.191164
4.062772 4.934709 12.390207
1.531923 0.260863 15.850462
3.015437 12.455855 14.668652
4.621886 5.883273 13.507752
6.815826 9.885329 2.983162
5.775365 11.824118 0.054295
7.694995 1.831015 10.250169
2.116614 12.301329 3.278828
0.452503 4.627489 6.170530
0.950516 12.363294 19.325221
2.794314 8.152216 12.546391
5.973244 9.068129 7.740680
1.302842 14.666646 9.076065
2.876506 8.684261 18.651914
7.115447 13.361408 6.409308
8.441698 5.004476 5.531285
8.478272 11.602520 0.155363
9.583478 6.464743 11.386739
3.230152 1.687073 16.234682
2.610037 5.200491 2.494415
2.995931 2.204103 1.374436
3.270706 9.398669 18.313608
7.773889 13.120753 11.449398
0.484057 6.653854 17.220686
2.960265 7.435327 18.530964
9.682127 13.720017 15.023661
3.730735 12.644118 19.267465
8.928561 6.207455 14.243124
0.820709 3.220779 0.044892
7.394302 12.763359 6.932167
1.152608 4.793758 2.367703
7.807159 5.165347 13.553503
3.197132 11.526255 0.890485
4.773936 11.456821 5.296365
4.659137 6.843518 4.297065
0.685254 6.747539 17.491051
7.328138 2.920106 15.686690
3.151772 2.370009 19.120826
2.824678 8.382889 19.369721
1.922154 13.169129 6.962481
1.774484 9.603109 6.694251
3.641407 12.730152 3.078188
3.001782 3.080768 5.449367
0.423441 12.158512 12.117369
5.052658 10.405464 7.565101
1.525064 10.789741 1.409671
4.031341 14.771706 0.745140
8.817700 0.002282 16.731869
0.635614 0.425724 0.513766
7.556923 11.694592 6.527621
5.091797 11.121442 2.901664
8.588860 1.106974 19.294971
0.644297 4.369459 19.036804
1.180770 1.820966 8.823582
8.175866 0.897066 12.272850
9.256251 13.901347 10.476042
0.505321 2.564286 6.215467
8.897428 10.343384 19.253520
6.268075 4.967576 3.445786
5.304346 5.598251 7.877516
2.107366 1.216811 9.213289
5.758156 7.426669 9.042303
6.541994 2.807679 2.976593
6.983133 10.765970 9.934309
5.831718 2.064622 14.101840
7.597451 11.737844 14.883860
1.747645 6.430370 16.305041
8.437971 11.213004 12.173943
0.441257 13.053738 3.953014
3.175878 8.214570 2.819472
1.416992 0.098670 19.428113
1.520352 13.055741 12.774089
5.854805 10.815079 10.362854
7.918030 9.253457 2.491692
0.646191 6.394292 9.022606
1.928771 4.139835 0.356585
9.674722 9.514416 16.168762
0.127973 2.641829 17.042929
7.182417 13.210157 2.545555
8.921835 2.160810 9.582092
1.714108 0.956617 1.749853
2.991051 10.115045 12.825948
9.381577 4.394106 15.294433
3.117227 4.365481 7.511204
0.504706 5.720646 9.346723
7.709683 2.767799 1.414052
8.110778 6.899818 18.001005
3.036991 10.954097 18.188536
5.191666 2.117810 14.316634
0.677482 14.103966 14.027185
3.012528 9.030797 11.238467
9.662368 5.488225 17.979458
0.579327 12.372691 18.209557
6.869047 4.737169 17.836163
1.108427 6.193343 9.288555
8.857163 11.325802 15.064486
4.748900 6.300244 5.131538
5.876126 9.731283 8.727906
5.351188 14.189180 19.220152
6.236423 12.397413 9.951924
0.102449 12.758393 4.128322
3.087505 0.928354 0.316930
6.881949 9.225299 5.079902
1.237948 1.056246 7.028883
2.809067 12.294000 16.093353
7.502400 2.287913 2.819011
5.503762 10.761599 9.917559
3.441603 5.355654 13.707673
3.404249 3.594006 16.898195
0.269603 2.638208 16.051368
8.871677 7.247209 12.144659
1.225916 10.634683 17.056917
2.392977 7.558910 10.403527
8.072248 12.676233 1.059530
6.568543 12.863319 6.521560
6.603350 1.378288 9.001815
6.573480 6.989354 1.935733
5.135754 11.104736 12.120377
6.463244 13.222963 14.102844
9.850535 9.433467 17.550316
3.950075 11.159824 0.046758
3.684177 14.750513 6.381705
4.111840 14.554631 19.021531
8.759934 9.463742 17.994370
5.958230 10.362163 0.704851
6.585327 6.886431 16.319250
6.691965 14.955120 14.853422
1.900217 14.075413 2.745607
5.803097 7.719351 14.033066
4.695815 9.484240 1.500070
9.927303 5.212877 18.509081
2.252171 13.920120 15.270580
7.660006 11.094697 14.774852
9.510543 9.672480 7.259928
8.460159 9.391244 10.596425
4.777320 9.002725 7.811733
7.576432 0.930953 9.699204
1.510204 11.893027 3.904170
8.930217 1.995557 15.359307
4.772183 8.800696 13.364324
1.174306 14.824152 11.429898
1.190339 10.712224 6.961050
6.904676 12.333766 19.841667
8.153692 2.014388 12.105189
6.036980 2.083801 8.088176
5.890551 13.377971 7.951999
9.336649 7.704882 16.351338
9.960014 2.655379 15.424155
2.033054 8.077191 16.222011
3.314472 14.602913 7.713259
1.887985 5.394020 9.236540
4.246464 5.985693 9.646471
3.006161 7.035876 7.868324
6.271000 9.659091 9.120778
7.053677 4.679445 12.803258
9.767736 0.577945 16.906681
2.628156 2.749565 5.287368
0.302914 3.389068 8.427716
6.281512 6.105783 2.644955
8.379830 5.131938 8.605531
6.319171 14.157665 1.701582
9.968889 3.517032 9.017735
7.653048 1.676647 18.285100
2.285280 13.037309 2.740535
0.553945 7.985243 5.324782
2.873266 0.455153 12.900004
2.827311 0.405489 17.616752
0.744137 3.648307 15.680179
4.051723 13.120069 16.927541
6.915839 4.004262 5.359797
1.874609 9.817344 11.389490
1.740523 13.038849 7.490624
7.469017 9.198132 18.472357
3.503458 5.926354 4.532797
7.092867 4.361792 10.735286
1.825268 12.575736 5.476051
6.342381 12.836558 6.688095
1.628268 2.535120 12.418480
3.185099 11.103258 16.153387
6.104495 8.376248 12.010079
6.862983 9.613558 13.097871
3.590409 11.741504 1.315020
9.567441 3.032058 13.989070
1.585963 1.452510 13.789686
7.941973 2.905650 3.839172
0.840749 8.084653 11.795091
2.687325 6.818518 2.030606
3.219643 7.024795 14.105683
8.881063 0.715676 17.885149
3.967221 0.258019 17.312098
5.792050 5.834159 17.794735
7.465036 10.299803 11.278335
8.483648 3.160931 8.122969
3.086514 12.347503 11.854196
8.951784 2.756694 4.336452
7.430110 10.938287 6.286309
4.462946 1.625668 15.743624
6.311865 5.371988 3.730247
1.685166 1.180543 18.663331
5.015715 9.768348 14.539078
1.760524 2.024610 7.503988
9.841931 0.537001 10.683794
9.658930 9.833533 19.449915
9.688083 14.883488 15.219336
6.268557 12.931363 11.552711
1.024895 0.758120 7.566432
6.566224 13.841564 8.645136
8.381337 5.867766 4.069770
1.267150 0.575467 17.384196
7.931607 0.975681 11.433116
4.821309 4.057888 3.036682
0.781303 6.219654 1.188911
9.242916 12.020069 0.071756
1.521952 1.961713 7.151935
6.696132 3.197970 18.643641
7.546658 0.860153 16.297242
8.992999 9.179336 5.353177
3.773947 7.245326 17.570647
0.716588 6.279593 5.757440
5.978822 14.036784 1.532721
7.629721 2.400221 4.134685
5.431934 6.490323 13.738497
8.335939 6.956238 6.281807
0.167574 1.378797 1.243984
4.050341 0.535990 19.796355
8.063153 9.180752 19.280752
9.810069 8.317242 7.009012
1.868301 13.664890 15.816569
7.494313 2.041804 8.086589
2.805475 0.064255 7.218901
9.944314 1.935425 2.150945
5.498203 3.905561 10.104519
2.221040 10.508276 7.192149
9.828311 12.469973 6.759372
3.549679 3.261132 16.998004
8.665065 9.920913 1.325126
6.261086 11.992617 18.730602
4.370891 14.086580 13.828727
2.141697 4.849985 19.538970
3.659331 1.524650 12.518842
0.376596 1.171702 19.101156
5.854769 0.868892 17.411837
2.868563 9.598836 8.564540
0.824328 1.265392 0.369382
8.155487 10.422398 8.324639
4.112011 12.810144 14.750868
5.625209 11.268876 1.567740
5.909188 11.480338 0.151214
1.746936 9.337565 6.392276
3.600668 9.499837 6.537235
7.726198 12.128905 0.970580
4.657395 7.859774 3.454152
3.894994 0.847455 2.097372
0.863177 7.659298 16.776040
6.124016 8.774855 14.013841
6.663912 6.346090 13.878129
5.458723 7.373681 13.423403
7.520862 13.157680 11.172313
2.667590 2.839308 15.030773
0.711570 2.323544 0.224053
4.826656 10.564217 13.692235
2.359317 3.939601 8.722687
9.520570 10.323114 18.715977
9.486724 2.274991 11.933417
9.869616 14.206174 13.454256
0.653469 9.014794 7.239984
2.366942 5.256555 2.823567
6.091514 3.229075 13.424904
1.310648 7.128259 14.579131
0.254363 11.644815 6.611369
6.538678 10.687622 1.254207
2.408738 2.919594 16.683125
3.388751 1.344817 8.656155
6.530184 2.206731 11.488648
5.382958 14.764426 14.623115
3.585948 3.988420 14.225163
3.859697 12.776763 8.655247
0.114131 1.878755 5.172094
2.672475 14.834251 15.722443
6.814815 1.065448 11.555528
2.267949 3.116335 19.313315
4.253136 1.059233 8.748632
9.406141 2.889557 3.039740
9.072908 13.813504 17.781110
7.655161 0.795437 15.115147
4.274405 11.535068 18.209944
6.633090 4.686452 16.610875
1.419058 4.484682 1.995299
8.483170 11.460065 5.599225
8.611769 12.631524 3.596047
4.058123 14.555317 17.154393
6.126092 6.537737 2.575708
5.391284 5.909920 18.128143
0.801760 7.082104 7.528782
2.275875 13.018313 11.642194
9.275075 5.629123 10.759713
9.250931 10.936472 11.460673
7.301158 12.242720 7.437841
1.753214 6.847874 6.035300
8.092523 8.714294 13.764567
4.724927 11.461025 0.851938
9.869177 13.381543 13.408457
9.714784 7.752047 2.957970
3.727831 10.195710 14.852213
9.746107 8.763014 3.887878
7.676383 6.504640 9.746037
2.809703 1.978140 18.633050
8.178259 11.943109 17.382037
3.872824 2.539753 9.197268
4.058319 10.305310 2.229924
0.750061 14.553318 3.057647
8.579522 6.585348 11.834598
8.207103 11.878799 2.296919
9.594758 12.588046 6.278483
9.242040 8.578472 14.020502
9.958280 2.020555 15.627309
2.833161 8.632633 9.945979
3.620682 12.119044 6.922727
7.590561 11.140048 11.627599
6.420542 13.075045 7.841462
7.512188 0.995477 8.548212
4.109418 11.734831 17.048401
0.055283 4.085732 13.986592
8.361116 13.981820 18.320563
9.820739 14.541950 8.520166
7.300189 1.501986 8.157716
8.130313 11.328501 15.022311
7.822142 1.318029 6.452739
0.960868 3.890825 4.069577
8.489896 3.859243 2.220410
6.008566 14.384281 1.373414
3.479769 7.035640 3.493831
1.154155 8.860407 5.551418
7.459639 3.849931 8.176992
3.046191 2.084848 14.643796
6.938579 0.717530 9.781243
5.719205 3.824956 17.632943
9.082134 3.641891 3.618694
1.726548 8.875730 5.833261
7.059394 13.266869 16.657924
2.097481 14.885816 7.520475
6.435104 12.913585 6.045611
5.692915 3.125841 7.266694
7.899220 2.635136 4.306701
6.823768 12.810235 2.358810
3.861814 3.050393 19.064981
0.088444 11.415285 10.218281
6.982837 12.684424 8.983109
1.063080 14.222291 2.384878
5.932059 10.996784 17.518905
4.583402 4.567673 4.819474
2.188025 2.606748 0.645743
1.387343 9.905749 6.562353
2.410736 6.233070 5.419426
8.139684 7.806101 13.200829
5.219429 4.822902 7.096421
7.639816 4.869118 5.393068
2.553264 12.370516 0.536189
2.669251 0.675139 10.209899
1.541499 12.939728 6.177320
3.608145 8.293055 3.406162
1.657421 5.093196 11.091426
9.205449 6.665129 14.451356
5.888152 8.141056 12.296474
8.649835 0.477355 6.302656
5.204988 3.407670 14.897612
5.136225 1.443085 5.555707
3.149287 0.012205 8.212199
9.821819 3.783626 9.469967
3.129068 5.394543 11.416770
1.634531 0.234875 13.390328
6.990922 12.047354 17.347991
9.874698 6.649366 13.003955
6.372392 10.686492 9.999683
2.910940 7.291373 1.729232
7.701289 0.536226 0.471278
4.086666 2.234240 2.571814
0.822561 7.826855 17.392837
1.336562 7.165006 2.377560
7.192045 2.099065 19.809008
0.015688 4.900688 7.769112
6.915235 6.878461 8.671119
8.664054 11.571813 13.987748
5.006031 4.410929 9.701938
2.507909 13.191360 11.633946
4.301622 5.331195 17.232536
2.847872 5.985216 4.610920
7.688360 10.695437 13.330501
0.477226 12.937039 6.200907
2.671510 13.868145 12.980524
4.265153 12.230749 14.239790
9.772077 12.754041 13.460798
1.150222 7.778823 11.286414
2.197134 2.888497 16.292953
1.472760 6.235271 9.956636
4.246543 13.105001 13.174506
2.869958 2.995826 8.656960
3.500818 13.838189 4.512621
1.605761 0.734031 3.309451
5.884797 1.043657 9.827830
0.364660 1.485012 5.299541
3.229965 3.895892 14.519835
3.284006 7.650504 15.500745
3.722887 2.471119 7.034640
0.192532 5.673542 7.695532
7.805596 14.166006 8.424886
0.979051 10.716886 1.117305
5.292934 3.315387 6.843627
3.769682 2.343107 15.562197
4.058144 9.435284 6.170885
0.766316 11.511084 7.790613
6.758791 12.724576 1.024837
8.678673 7.550745 2.946168
4.257659 7.395921 9.486382
7.442332 0.055428 19.428891
5.426098 2.417492 13.876227
5.657205 7.172692 2.650742
1.377877 14.811344 2.850529
7.328394 0.393448 1.106760
0.263731 7.869144 2.303312
6.860193 7.468763 2.108880
6.583372 6.169571 17.271702
0.135945 10.516922 9.674716
6.118906 2.872322 9.777751
4.900586 12.341567 11.520759
4.903791 14.164497 4.932301
0.144816 11.712596 1.287492
9.923423 2.140449 4.919484
8.055842 11.074372 19.515139
3.896370 1.271764 18.208033
0.813362 14.149421 14.387589
5.206031 9.288328 9.856057
9.497492 5.195422 12.434991
2.802261 11.446529 16.291805
3.163989 6.005869 6.654497
3.905748 12.958034 18.254437
6.003478 12.510066 8.613633
3.336046 2.130576 3.139187
8.161516 4.112510 6.927814
6.007815 10.622644 16.964870
2.975755 6.651189 9.841905
3.653265 1.516996 19.937888
0.066450 6.991848 8.557257
4.729228 8.926640 17.895532
9.115076 10.150147 3.120371
7.183476 6.571511 12.280705
9.852890 3.742172 8.984369
0.742857 7.254887 17.966566
9.453778 6.049574 9.507279
0.531135 12.385780 5.004222
3.983830 6.715490 3.621220
3.324610 5.786191 15.748944
3.738371 11.148045 2.308128
0.582371 8.450641 17.675890
3.452705 4.641115 5.393448
0.664393 2.718182 3.443495
6.796820 8.009940 16.141175
3.753356 8.421006 6.283910
4.821761 2.400610 9.275608
0.627292 7.705069 8.472092
8.080351 6.213126 0.945854
8.141740 6.613341 6.246163
2.078172 6.770916 9.838774
4.845248 9.059896 19.142599
4.925765 5.648060 4.331562
7.930503 1.482130 17.549245
0.563745 0.775316 0.824326
5.250447 9.693937 5.461822
2.564375 2.586186 5.368044
4.270535 0.995079 8.104336
8.446103 4.388391 16.720079
7.082592 10.120847 16.691940
9.332289 3.440495 8.638340
2.282341 2.903685 8.833451
8.400593 5.642974 19.692726
7.966766 3.943493 5.732373
7.405812 8.212493 18.109890
1.446560 14.319538 13.377274
9.246810 13.514693 4.236639
5.118914 13.276276 8.519342
9.222686 9.646818 18.719011
7.584135 13.601458 4.950238
3.476755 10.512325 6.840848
9.634946 1.206229 16.047712
7.080986 8.041013 16.187589
3.622021 11.402494 14.041431
9.098267 11.310877 11.040093
0.652280 6.066585 9.285649
2.894710 12.948751 0.749870
5.893816 0.146964 17.298004
5.522818 6.822025 5.017471
2.230751 13.330521 13.749216
0.881085 8.073466 19.464224
4.352310 3.340777 8.731142
7.240920 0.792486 17.209805
0.188212 5.101769 16.456247
5.045135 14.728891 8.681979
5.907070 7.375148 17.340657
9.208423 5.254102 12.036188
3.759902 2.833906 16.488086
5.632466 12.160081 0.179718
6.583558 6.904891 2.783928
8.503771 9.311414 9.738321
6.316823 5.216188 18.871481
6.026089 12.113852 6.397949
4.059166 8.399122 2.732206
8.914713 11.830570 0.376500
6.202181 3.896267 5.299963
0.170712 12.061528 7.270287
4.018261 13.034843 9.890633
6.732524 10.205311 4.200463
0.492560 3.494561 15.853147
3.869776 0.485830 9.862571
5.442140 0.771209 7.805127
2.300521 9.897671 12.010491
8.324037 13.279153 0.330343
9.454924 14.926632 10.052539
2.114520 5.793989 9.969962
6.630048 6.855588 2.112453
6.641320 5.076413 13.521553
4.511350 5.219172 19.738066
8.566912 8.480161 5.743562
9.604633 4.762488 5.523801
0.678979 3.423410 19.172546
1.869490 13.700952 13.657839
0.778760 3.876291 9.235827
3.235264 4.795018 14.826445
4.051128 10.483397 9.739216
2.361593 0.170223 0.461621
4.102745 3.425484 9.784356
9.820641 10.263516 11.097494
9.370309 5.230122 11.401429
8.413659 6.992956 13.451925
9.579302 13.920499 4.751621
3.608099 4.932045 18.172743
9.528159 3.684137 19.319566
0.504835 3.333316 11.173347
4.883855 3.237078 12.749983
9.638952 4.532612 8.684226
1.040854 7.282962 15.111094
4.989498 11.658812 1.423554
6.515155 6.635158 4.988891
5.847782 4.021419 9.812607
1.298146 9.404457 6.732180
8.216989 1.335242 4.833063
1.359158 11.338139 19.955318
9.470714 9.899764 0.720018
0.878609 3.695471 4.269434
1.368726 2.561511 19.406879
5.883733 14.530122 1.097966
1.819810 1.571974 0.566654
8.249933 7.119694 5.581431
0.338047 6.030277 12.643892
6.457690 4.458494 9.546681
8.335942 3.748348 15.677982
8.329455 12.118682 15.417238
4.796534 11.383847 0.725096
1.139961 9.133453 4.984381
2.212494 14.467858 18.818185
9.833677 2.309999 0.333056
8.755513 9.550682 2.588667
9.799300 2.940596 1.265001
6.831417 13.928243 16.796307
3.553860 3.466416 2.694682
8.066612 7.887715 19.980786
6.607188 7.723754 6.625590
4.290303 6.413072 14.378776
0.701719 7.364078 13.271593
2.358190 1.210983 7.404863
1.929789 2.544993 11.147693
9.886320 13.885637 18.053530
6.132691 0.459043 0.958064
3.442176 0.466968 11.124680
9.259412 8.563393 15.429465
6.601236 12.964667 19.251849
3.540634 7.891271 7.336858
4.506894 12.647098 10.838042
5.657906 11.177921 18.499652
5.761479 13.992323 8.681606
8.327314 1.861123 9.923638
9.635049 0.927617 7.164935
7.712593 12.803158 8.518312
4.601489 13.233367 6.668341
1.764951 5.724311 13.024830
0.007716 6.234567 2.683862
9.326980 11.993486 10.480553
5.193189 8.050828 5.970034
8.808525 6.274962 5.056543
3.795647 7.574804 11.073720
3.953760 13.047788 6.299416
6.457048 9.577240 6.647828
3.039080 1.715455 19.107265
1.560264 11.871093 15.095967
1.949982 11.027949 3.155990
1.363284 8.723836 5.572419
6.361455 0.466746 16.214642
1.794156 12.410856 8.476676
2.086282 4.829786 9.944063
1.391755 3.349076 12.293279
6.312649 11.719843 8.094441
6.577179 7.680082 17.743049
3.051752 6.811654 7.507479
7.454176 5.255707 7.634571
2.433938 4.198232 6.045245
3.941254 2.370810 3.202439
8.495654 14.329131 13.294368
2.414197 9.940227 4.115722
0.771788 11.432319 18.398054
2.457570 4.331689 6.580836
8.907321 4.128635 13.654305
4.835469 8.150830 9.912450
5.789115 12.744622 1.923024
0.316906 1.256704 19.435582
4.206284 5.164002 2.977155
8.089503 12.055876 6.154667
5.932337 1.118030 11.661437
7.714770 2.548515 3.505083
1.500692 6.553143 5.273533
1.114417 3.305157 13.590139
5.674532 1.824123 5.502911
8.924607 8.610997 8.964241
3.004455 14.247708 10.289158
5.229573 12.597728 10.214876
4.702183 5.912793 4.243902
6.538080 8.330051 2.996166
7.210901 14.729907 7.840498
0.803796 5.576148 18.867798
4.003314 6.933211 10.186373
5.864688 11.793783 10.529087
9.137728 1.340299 10.926793
3.504334 2.326169 8.354894
7.730916 10.122996 14.850669
2.438922 8.601945 13.768591
6.782041 4.763950 7.164076
8.556648 10.795342 7.931379
2.797569 14.306641 7.813353
0.885450 12.425056 3.177488
1.276069 4.118315 11.243173
3.773983 7.689737 1.052184
1.273376 9.791550 4.495573
8.028301 13.852853 0.889587
6.418999 8.411796 9.947140
6.445234 14.834062 18.626981
0.318451 8.992815 11.229526
7.065863 14.051546 9.472211
6.260376 3.480101 12.555332
9.700062 8.022718 5.167181
8.724400 13.652454 6.193451
1.408632 9.122946 8.867479
0.837403 13.931189 3.606026
8.445031 10.256904 0.569333
8.708516 11.579379 12.141316
9.330602 10.292309 4.138628
7.335949 3.165180 19.178907
8.438052 14.161160 16.394358
0.955432 1.855755 4.661066
2.784702 2.926270 15.381558
3.194119 10.830436 11.673727
7.560014 13.545811 11.491808
2.112474 13.099728 10.723385
4.006604 10.664998 5.426899
4.836271 11.842099 7.104446
5.584809 12.089300 12.837913
4.879282 11.208097 5.928579
6.577098 8.759472 18.117599
5.734373 11.222620 8.588287
8.603607 12.047618 1.805839
2.398752 10.647663 13.981885
6.809206 11.109169 4.250370
1.909871 8.239712 0.610764
0.313272 9.471508 11.518619
4.561849 3.688455 12.367658
4.616442 12.164777 19.112702
2.539545 11.438630 3.800789
3.470435 6.981485 1.270448
2.430990 3.962158 12.109750
8.947098 12.909023 18.480895
8.309632 10.019763 13.000136
3.647240 11.055869 6.010789
6.281337 11.762453 11.298018
4.066344 11.174816 16.202365
1.919197 13.099886 6.116984
6.347867 12.368336 3.092541
6.128933 9.736897 9.068306
9.894214 14.118316 4.361484
7.627703 6.403441 0.431667
3.187017 7.855050 8.555191
9.353568 1.099611 5.919292
8.217900 0.896529 11.832205
5.177594 10.560117 17.712722
0.750098 0.793167 9.909963
2.544025 6.313053 2.381049
0.430559 14.972757 10.566226
3.922425 8.506059 10.641874
3.711941 3.198688 10.204363
8.095057 2.982404 17.159390
9.926053 10.332299 16.610353
9.988791 5.686624 1.007226
6.299131 0.157074 17.874902
6.853714 14.959543 5.838367
6.670090 10.285038 5.505362
3.584069 3.887634 9.633724
2.994873 7.151985 0.224273
3.426856 0.477020 8.919873
3.071241 14.666602 14.603639
9.884440 6.629148 12.268558
0.088612 4.950773 11.555546
9.236405 10.588630 16.607739
2.653323 14.875002 8.365962
1.070475 4.431382 16.544436
2.139848 14.194842 16.958307
9.130731 12.850068 6.805007
3.066010 11.064550 17.961864
9.716892 11.265268 19.383980
8.505232 2.516055 11.081417
9.783531 2.552731 1.532426
5.262264 14.377825 6.362016
4.214844 13.689839 15.089482
9.918262 7.976071 3.492684
1.227775 11.318736 9.436151
2.350381 0.607613 5.894126
4.650276 0.591134 18.140241
3.919105 1.407034 1.704633
6.863634 8.142035 15.314332
2.531878 6.886712 19.161898
4.352853 5.006318 18.918386
3.932633 6.670071 12.832547
7.605411 8.979985 17.764635
7.843762 1.477873 2.544622
6.819954 4.392416 4.557086
1.149314 7.013402 2.977124
1.783055 13.962528 10.013117
9.291342 0.248582 12.423555
4.934849 1.727502 6.242558
7.485969 5.394612 9.846856
1.737160 14.580461 19.433735
3.142145 3.201139 16.013710
0.387053 14.937129 19.697118
5.522591 12.363216 7.333221
1.280414 13.861513 10.149334
3.655827 8.527301 6.932613
9.164182 11.348786 10.409813
3.892678 4.999781 9.392098
0.682049 1.967585 1.311060
9.340161 12.216112 5.923765
9.951272 7.577523 12.436529
2.053140 9.682217 9.425353
4.703623 6.647840 3.626393
3.299831 3.292662 12.122210
9.815014 6.730851 11.838749
9.980568 0.590364 5.270016
7.284945 4.545055 9.417809
6.302996 5.689794 0.074142
6.421193 4.417896 1.064182
6.229384 3.242166 1.522306
6.968978 8.300477 17.818763
6.899682 2.432107 6.790690
8.313767 13.714739 12.897450
1.549122 7.892502 3.201394
1.628505 1.824071 17.941764
6.018094 1.003588 14.227122
3.716866 14.522414 19.327966
1.484172 3.998305 2.702392
6.104573 2.998823 3.128505
4.544573 0.250595 15.385919
9.452718 7.094449 12.871585
5.873445 0.761610 13.830203
9.683905 4.830154 4.568379
1.750647 10.866636 1.278266
0.940717 9.022379 14.017722
8.429394 0.692016 12.783744
4.832168 10.874260 1.829354
0.260666 2.658806 2.891946
2.705760 12.409420 6.006864
8.751226 14.634671 0.644735
8.149669 6.198863 7.127648
2.469740 13.716666 11.731953
8.987063 8.340575 4.590908
9.769821 6.534840 11.689045
3.453411 1.131913 5.093638
5.436678 14.303252 1.182009
8.842295 4.271423 19.664058
0.931031 0.606136 7.086396
4.926076 4.217516 16.143938
3.277486 3.958477 14.122292
2.631731 14.342336 4.113503
5.666785 2.773223 0.047180
8.103483 2.853734 19.279442
3.193672 12.756873 4.772421
7.742163 13.708141 15.615267
0.078990 2.752131 16.362680
3.022066 6.091082 18.826007
4.866644 1.561160 8.847662
9.991699 8.868292 9.098550
7.595188 14.014531 18.807313
2.513319 4.428011 17.292775
3.370258 5.315570 18.786043
9.564866 11.132456 10.399512
6.103888 7.435359 4.236690
8.984344 14.541030 10.094650
9.414398 11.107146 1.510803
8.770254 11.085512 16.053531
5.140236 13.597556 1.688644
6.612400 2.967959 2.665935
8.083064 9.339264 12.441621
4.779249 1.985042 5.524741
2.089563 1.323414 16.310019
5.625363 0.711121 7.909349
5.396102 4.551061 8.138154
5.083669 5.314347 19.477236
7.275648 0.673682 10.029582
9.497835 6.011247 14.956371
8.493719 5.405133 1.448456
1.943016 10.518435 16.248648
5.151672 14.678872 10.524007
1.214289 12.618494 8.489829
8.832482 0.587331 13.696879
1.379477 12.393096 2.794639
9.469222 1.623511 15.115919
3.795670 12.676501 2.210598
7.742013 14.240856 16.272732
0.407155 9.352374 3.763571
2.814821 2.830586 17.590216
0.574891 5.000007 10.092006
8.128944 7.757958 15.873393
7.787037 2.161734 11.402158
9.704694 2.842109 9.304775
4.740432 6.155796 0.695266
7.026388 4.510701 5.588989
9.884337 9.010906 12.748952
8.997200 0.698925 8.773186
8.181385 1.836186 3.686961
5.026050 11.531829 0.125587
7.343013 5.052257 8.255188
7.143647 12.373182 18.699361
8.980720 4.091764 0.302467
5.563788 11.661269 6.995033
2.826285 0.064244 2.283884
6.856405 7.119763 0.680746
8.796406 1.480424 9.672317
9.118777 6.052500 16.339847
0.097760 6.936295 16.191823
5.701381 11.196417 14.597435
6.705286 13.704164 3.632893
3.021403 1.288644 3.303856
1.365356 12.460621 18.969080
9.550939 2.785144 12.213239
1.456928 9.054482 7.497753
5.947325 14.968065 10.809743
2.113948 1.370158 2.511190
4.833975 5.784722 6.776067
4.653777 8.412652 7.560691
9.488289 14.388798 13.815728
8.434282 3.167049 12.373021
1.503116 10.473223 2.963573
4.658027 11.760865 19.820981
2.464676 2.321748 13.581295
1.407825 13.550950 19.624977
9.119191 9.023351 10.954869
3.252076 13.396119 17.486236
5.672385 10.005497 6.333728
6.645264 1.306580 18.778430
8.241978 0.052365 19.600841
4.885464 4.945685 0.925991
1.008403 3.739352 18.865168
8.437543 4.650458 4.409141
7.595829 7.207879 2.012111
0.120180 0.614604 4.625457
5.850767 9.769861 16.905779
4.966294 4.136616 0.763806
5.125240 13.966230 11.189325
0.387968 7.380091 13.737697
2.499968 1.654305 11.106035
3.268835 4.840132 14.357293
6.960848 14.500353 10.895585
3.154084 3.603023 10.227343
5.712091 11.599247 19.555202
1.155187 0.602476 10.591973
4.303990 1.544490 5.362917
3.429704 12.806695 13.403516
2.403804 2.441101 0.056937
3.777271 6.453364 8.045906
1.038716 10.452046 19.991559
5.313380 0.615221 1.885860
1.288820 6.099530 19.283695
8.284308 12.856070 2.658312
9.739631 2.033617 12.968590
3.069171 0.925218 19.288423
5.387686 13.194567 14.129901
4.849365 12.578346 19.636789
4.553759 0.154967 18.957155
1.405163 4.792779 12.071620
4.410746 10.949999 0.181202
9.113807 13.379856 5.656571
2.225190 1.306988 5.357429
3.145884 12.142992 12.900230
3.803117 0.784821 0.271773
4.136043 10.391433 6.505513
7.749685 0.267077 4.086052
2.403855 4.910180 7.318145
2.928965 8.726111 8.995772
5.723821 14.986328 16.458353
0.318608 7.791324 10.048051
8.013492 3.289783 0.395246
9.159815 13.873593 19.216278
8.476943 1.965992 15.340084
0.051710 5.472181 1.808059
3.665896 14.263597 16.259066
0.749820 11.382586 4.153655
0.411103 2.172576 3.094484
4.148871 10.962018 14.778271
8.386645 10.248003 4.963851
3.637053 1.237261 4.312841
1.750828 1.407169 3.351542
8.640426 14.804026 13.738373
3.395865 1.370548 4.345975
2.077421 0.014679 3.720058
2.997058 13.017480 1.227401
0.449299 3.508638 19.909308
4.030229 0.710362 11.737337
2.030093 13.622958 19.448249
6.039903 13.100178 18.568775
2.789372 9.676647 17.534065
4.018026 0.349167 16.375784
0.735284 9.776051 10.287624
4.682369 11.391144 10.438118
5.293153 12.749591 17.605346
1.189447 1.636371 19.791767
1.517736 12.882884 12.058672
3.255854 1.608796 16.950355
9.146925 11.106910 16.387195
6.241909 13.557769 14.272385
5.156868 8.632368 17.316899
7.368113 12.293695 10.288736
8.720527 5.608967 0.647567
6.295505 10.308861 14.518663
1.845472 6.743964 19.536395
2.399447 14.378257 11.646717
9.519404 4.471564 7.964584
2.865813 10.393901 0.239397
7.940372 10.281154 4.703371
8.225050 9.649846 15.650348
9.451825 14.009236 18.179766
2.350819 2.721757 8.113089
9.970552 1.584300 13.878531
5.410435 4.726115 3.256630
7.546444 1.344057 1.690167
9.691936 9.257982 8.516754
1.646561 7.050167 14.993045
5.716657 11.467648 8.662154
9.231837 11.545237 15.672846
3.881719 1.844297 12.230441
1.051679 5.603461 8.929375
5.580625 3.984384 14.704709
5.327802 14.749867 9.434724
2.654598 9.590489 8.645038
7.286845 13.847596 8.574734
2.930681 12.692780 6.469522
8.710937 1.975754 11.972868
1.132285 6.664480 6.024880
6.527559 9.753927 4.092858
0.161389 11.354058 16.230795
7.984166 2.889880 14.285204
0.171256 4.557361 5.572601
4.198700 6.212114 18.581649
4.667537 5.818131 5.529743
1.349201 7.976878 17.772921
1.755225 12.736469 15.293252
8.373917 0.218847 17.522352
7.439504 11.867181 4.133555
3.051532 0.252972 15.723455
2.259128 12.468232 11.952708
9.190048 2.015621 16.383511
2.340585 3.820385 5.856775
3.966659 7.299064 8.627038
3.718461 4.505876 10.677467
7.003838 3.136469 12.540866
9.186208 14.566721 18.151285
4.789916 14.496174 8.894035
5.804111 2.564215 10.784105
3.483928 2.890314 2.989484
8.208572 14.613412 17.190882
5.306540 4.314259 13.555446
1.859189 8.633043 7.760081
0.075517 7.447017 16.851539
2.621939 4.797701 2.149458
0.913460 2.691479 8.030012
6.491105 14.365122 9.077737
1.779069 5.046857 8.145866
8.599760 2.603739 5.888907
9.540203 3.884826 4.497629
3.661514 3.143207 14.841420
3.472080 7.389580 18.542133
0.976299 13.848252 13.383437
3.486960 10.550442 3.038356
9.737178 5.471196 8.151039
1.420030 4.715744 13.045010
0.289484 7.919897 3.935600
8.469946 13.000234 14.510225
9.297395 12.926477 10.843580
1.571657 1.618454 10.889283
5.115281 11.093503 8.438596
8.556103 6.266672 15.046191
3.103347 13.987599 9.353141
2.967157 2.230436 1.653172
5.221636 12.986495 2.578216
4.384712 1.016596 12.582148
0.632595 2.538143 16.269104
7.043208 10.539003 19.291264
3.786725 4.998993 15.535057
8.839564 5.911626 19.696488
2.701438 3.841528 16.072310
1.734125 1.584347 0.347139
2.002740 1.380227 16.673587
1.861389 11.283885 17.724052
8.534887 0.575197 9.919676
2.593342 2.741760 17.983307
8.787529 2.778163 3.452827
2.456769 1.753000 5.304409
8.356838 8.173277 8.323008
2.413118 8.895163 17.569723
2.690051 4.636592 9.734476
1.866709 6.910107 9.218408
0.059150 5.032166 6.376604
0.677959 2.952589 19.850278
4.057059 8.125040 17.426093
4.894551 14.172803 1.581677
1.047433 4.207565 19.517220
4.105020 5.910010 9.175701
3.329681 10.617105 14.031488
1.743589 0.806843 6.638082
6.993531 5.185142 2.643462
1.420452 4.027597 17.577948
6.232769 13.002690 17.211889
9.996979 12.674213 19.227743
6.123246 0.814558 13.907371
7.896613 3.291605 5.460005
1.989639 1.585721 4.047975
3.790465 10.490773 17.710540
5.341549 2.130963 18.862796
4.105582 7.148775 14.562728
9.485496 6.568338 18.597314
8.591769 6.367046 11.617617
6.873271 6.202008 11.051992
5.356141 9.165827 8.879028
9.701503 14.425354 19.347638
1.464947 3.127396 12.098768
5.905725 14.225858 5.587268
5.703223 13.188368 5.417442
7.397706 0.331252 5.943620
7.680004 10.540582 13.577238
1.104176 8.617278 5.607715
2.575331 9.458302 15.501871
8.660883 5.995609 1.130658
0.157264 5.000847 16.800388
7.737276 11.616836 0.454028
0.538088 13.509608 15.642820
2.049143 4.317832 9.794427
4.674914 4.939231 15.524070
1.534897 11.000713 10.441055
9.184341 2.206094 19.192342
0.796719 2.324134 10.867314
6.150228 2.531646 3.418907
0.953187 5.887351 17.678771
1.387493 2.311199 18.804977
2.811820 7.664329 19.817131
9.763694 1.981904 4.716413
9.466240 11.268678 15.474476
8.106880 11.883399 2.724588
9.218057 4.189433 11.610120
2.563432 0.936613 4.102065
8.000367 9.773934 0.711612
3.952836 7.546545 12.341924
2.185386 4.896002 2.780512
3.132119 7.141023 0.608950
7.079524 4.846444 14.047260
5.726528 10.067288 2.567201
3.892989 7.392447 6.276565
2.854264 3.284737 14.896179
4.726853 8.335564 6.914841
9.795087 5.861718 3.521675
8.371509 11.730573 18.797071
3.115586 11.670674 15.311024
7.075673 11.308735 4.704833
4.508849 10.145785 4.555997
8.909065 1.480240 8.852590
4.973013 14.755957 6.588670
6.791134 14.822847 12.660391
7.928878 9.094473 14.645297
5.615693 5.197797 17.158316
6.262023 4.543422 16.554539
5.574554 7.834053 15.367861
3.410602 3.381458 9.261735
4.442321 8.184140 17.673714
5.626749 14.249698 3.364384
9.327318 0.589869 0.423561
7.875075 1.638201 4.082285
5.907751 13.800146 17.318700
9.122883 12.591794 3.200360
4.506758 7.285968 15.521118
3.122400 6.413403 2.228209
6.294004 8.429080 0.045891
3.062141 0.805704 3.489239
6.677430 12.328346 19.134870
4.276911 0.672205 10.207664
0.450131 3.103113 19.309569
6.724993 6.037660 11.474651
0.294456 7.119347 15.872115
6.352241 11.047922 2.758174
5.518476 8.593095 3.285561
2.299847 1.620712 13.621581
7.219159 10.718380 13.684262
9.204815 13.423520 16.922064
1.534932 6.400674 1.569542
6.065707 10.396350 14.905031
8.735951 1.704694 3.887316
2.431533 3.464544 14.255220
7.899157 12.630025 2.018479
9.132033 3.550713 8.432567
4.740239 4.335504 1.631246
0.554721 6.023357 6.598372
8.167288 4.960588 9.864540
4.756953 3.413453 6.165709
9.142085 4.101257 18.147056
0.389122 0.207552 5.307882
6.940287 9.034773 12.024752
4.133316 1.334512 2.904526
4.745808 10.902314 19.499618
6.536961 7.724273 10.200883
6.185453 5.104644 3.981839
9.011425 3.488413 3.008976
2.531717 4.559209 12.976655
6.722401 12.329793 16.739128
1.954328 2.641554 5.497120
3.564380 9.768253 14.912500
4.720650 2.635599 15.506798
8.712112 3.233846 18.849729
9.953015 10.915126 12.802071
7.208172 8.512462 11.628872
0.647886 10.521034 6.676033
7.000769 7.675952 8.750904
0.776098 11.660530 9.604752
1.729172 8.746028 5.475217
2.408277 14.016709 15.194920
9.313996 8.800266 14.034021
9.301649 7.171296 12.085143
7.942278 8.276808 13.592249
9.750168 1.229892 6.242895
9.072132 6.143555 10.916538
7.643497 14.101356 10.449003
5.049310 7.611825 4.063956
4.038198 7.775181 13.037190
7.465619 14.752334 7.641520
2.379526 10.523125 2.464847
6.623284 10.862894 10.108564
3.964044 9.432415 11.462036
1.940723 5.717485 2.199433
5.730030 0.386847 2.712926
4.325865 12.086191 16.804507
9.724580 10.016928 7.723475
5.460785 13.151067 9.132115
4.637996 1.988166 2.766229
7.874753 4.632401 0.030360
0.962896 9.069842 6.931952
1.796455 4.195095 0.598136
7.960143 14.989097 5.186842
6.385290 12.472193 11.472041
0.766505 1.012713 19.777706
6.226867 14.568806 13.933936
5.124341 7.324395 14.577451
6.767803 2.778447 15.651884
5.739802 1.362743 7.634507
8.058002 9.755766 3.662613
1.983834 8.160640 6.476097
9.320977 13.149868 14.661959
2.465854 1.931447 17.184233
3.750399 2.994815 1.367902
5.423372 5.393028 1.740450
4.737939 6.776986 14.335602
0.123328 6.550389 2.874284
2.459585 3.344071 0.474816
0.999957 5.914787 9.804518
2.016755 1.025104 18.449382
7.211838 3.279200 7.389236
3.489066 5.581710 17.466251
9.612693 5.027899 15.765743
7.003531 6.988346 12.986462
8.933764 2.157613 18.576980
0.421421 3.159654 9.942108
7.638195 0.331438 17.598747
3.602705 12.630387 5.167398
4.388142 3.102110 8.097511
2.391039 1.059110 1.081585
6.273995 14.793573 13.877379
3.895269 12.947684 3.050494
0.072863 2.353520 8.998066
0.183556 9.861288 1.621654
0.921739 5.231396 18.668227
6.781386 4.224754 18.772870
1.509216 3.660140 9.893139
6.730199 1.426973 8.102723
8.515370 0.211780 8.329822
4.552192 1.490298 6.352378
7.528886 13.479878 7.805806
9.107994 9.328731 8.168252
3.129348 14.014319 11.860795
9.946043 9.131963 6.750596
7.387173 5.423788 14.303855
1.918268 5.466795 7.424474
2.079670 9.642638 1.696700
1.636246 1.977796 13.044978
9.708798 10.680505 18.823705
6.853119 7.320923 7.603602
6.342463 0.155272 16.331159
5.346292 3.332042 0.589853
1.604164 2.073435 10.654368
9.978471 11.640675 9.852266
3.704459 1.786498 6.063519
2.290851 11.007284 16.858063
5.855699 12.784883 8.032751
7.756738 14.525142 3.079994
0.476747 7.100121 16.857184
5.908890 10.441533 7.041688
6.880970 0.151535 2.690052
8.578605 8.125004 16.754682
5.740357 9.357834 1.886909
6.824183 8.760505 1.630789
0.473951 7.290144 15.198281
6.479162 7.457838 0.451563
6.571190 0.971824 5.632439
3.952466 6.122540 6.044232
6.700263 0.638908 15.177823
7.147611 13.357092 1.877602
9.558102 7.150826 2.012051
9.407273 0.346943 18.862949
9.892384 4.309046 2.345158
6.634334 4.514429 18.220125
8.805500 7.932765 16.101112
3.573186 4.445530 5.885331
6.056458 1.304955 3.493669
0.692648 1.693405 12.777971
2.204031 3.787966 16.407006
3.809497 0.876366 18.719577
9.269378 3.486947 16.464602
0.420332 1.873209 18.141227
1.464165 7.638434 6.958763
4.249562 12.457540 15.619491
7.820794 8.955688 2.334187
8.519699 2.125338 11.135170
1.578484 8.828638 11.102057
7.185833 9.644361 6.048013
5.281389 0.699569 5.809309
9.567107 2.702643 11.844306
5.470556 10.820251 6.671780
3.335445 1.031949 17.672487
8.266441 5.849507 17.647161
4.241911 7.029068 2.654041
0.523714 0.000638 16.321474
4.079693 8.661798 2.817359
5.334412 13.597079 18.997355
9.939383 6.147455 0.504835
9.280354 12.832281 5.214429
5.466632 12.816875 18.300841
2.727510 7.918939 18.737731
7.398720 0.739209 19.289545
8.648394 10.117131 6.962810
6.379065 0.654267 5.162991
4.707401 14.865033 5.672589
9.797412 8.954399 16.004377
5.711646 12.803045 19.386188
1.953978 12.751483 16.690219
5.307031 7.069707 19.303210
9.930362 0.905395 7.925077
8.607532 7.980934 10.878635
1.081847 12.794485 8.191050
4.106956 8.056277 18.296611
6.717893 13.437140 16.484216
7.473009 2.882110 6.374590
6.193252 9.820481 13.547586
8.524043 13.562217 15.481341
1.092101 0.510939 16.642188
8.685203 4.475094 18.208401
3.922406 9.627597 14.683072
7.007515 9.405142 7.764966
9.019290 6.552558 7.351533
8.867619 7.889927 5.640001
6.011660 4.714690 11.050879
5.223513 12.591599 14.678901
6.936026 5.369131 7.482520
8.272706 7.866874 10.327509
3.674904 4.821833 10.292887
7.408999 5.764711 3.737327
6.554959 6.121249 12.168820
8.385551 2.356663 5.302854
3.558539 10.837522 4.985263
9.880441 8.206702 11.564627
7.715590 13.976677 17.009614
3.806656 12.552413 5.767662
5.180789 8.440379 1.892580
7.546176 14.014973 16.214840
4.172160 10.854918 9.509758
3.524597 9.592682 14.015524
8.906410 11.876021 18.590124
8.729536 5.581207 4.994157
7.717286 3.604911 1.762860
5.829703 11.002821 6.341893
0.165750 4.246930 10.344452
9.910801 1.861232 0.833870
6.874304 7.163497 2.307312
0.267384 13.072057 6.769082
2.955244 4.391321 0.166117
0.623940 11.896013 3.831840
2.743337 0.052403 9.319886
2.547166 7.844553 15.449380
3.446849 6.091267 7.134772
5.269244 8.008276 11.049931
6.106843 11.920480 16.056086
2.206842 10.364850 5.188439
9.769535 5.243047 4.711219
2.945849 6.078111 6.729502
0.908938 14.108925 14.954573
5.760473 12.974846 6.806379
5.404269 13.076324 6.880939
4.800099 7.436650 16.921010
6.380300 13.780352 12.698701
0.853820 6.446284 1.712122
3.541709 5.395644 10.015691
2.045300 9.287839 5.847386
9.466869 11.778177 7.295176
9.190260 0.384895 9.089893
6.545841 11.261118 18.237512
9.197000 4.270153 19.941442
1.433592 13.807723 6.485090
3.976200 12.723148 19.618017
5.800676 5.733786 15.988487
1.572454 0.516774 9.156328
5.138250 13.920419 15.012773
1.651563 13.928426 7.108728
5.350255 2.143851 16.698939
6.626071 1.003993 19.829782
7.537527 9.003972 11.754425
5.522144 14.468008 18.524670
2.087785 6.931514 2.799282
3.835533 10.764260 18.656764
4.436467 0.709699 17.626317
2.764365 8.463006 11.357123
2.939882 11.626940 7.294650
5.064272 13.335905 8.707174
6.796381 10.585651 7.498804
8.709054 0.280420 17.657200
2.233066 13.911793 5.709890
9.020603 5.191939 2.400459
4.055579 12.519478 8.473475
4.954498 4.409994 14.573036
8.619502 3.430793 16.128680
6.635412 8.102266 5.543993
2.385234 2.277754 5.077530
2.585169 10.306696 3.427910
1.861974 2.835431 6.515768
1.914686 2.223639 15.836327
2.282912 1.184233 17.911497
4.472922 4.830599 17.112537
3.589467 3.516766 17.886254
2.801689 14.177457 15.498123
1.726896 11.055693 14.865084
2.337314 9.849270 19.459833
5.407659 10.198562 15.233746
3.026720 9.831611 1.426422
6.519775 8.799481 3.726154
7.145635 4.287479 14.240152
4.807987 5.211173 9.713970
9.120197 4.245447 16.208854
3.928465 6.841958 7.942485
0.798351 14.234891 2.609041
2.099101 14.944354 6.612670
4.102949 0.196152 3.269506
7.442934 4.613152 15.771873
9.682820 9.558069 7.998508
8.620104 11.255273 12.190521
0.528629 13.274516 16.948746
9.007956 10.417178 3.718729
1.049035 4.026425 14.019833
0.685559 14.006156 10.373065
0.073918 2.778829 4.799909
6.730679 10.762510 5.955141
8.329656 8.162828 4.191122
8.499368 2.922085 18.867400
6.828630 14.399029 14.507460
6.746733 6.374757 14.205292
1.228376 7.540629 5.892420
9.925391 4.270552 10.271177
0.562574 12.089673 8.189478
8.706482 7.919149 2.653325
3.525452 1.185716 1.811167
3.602333 3.065482 17.259759
0.170878 10.170668 11.168026
5.915183 4.040902 9.851620
2.803742 10.200275 10.440178
5.314394 11.475852 9.312426
4.867130 13.304298 18.429745
1.221575 7.384119 9.962150
8.501950 7.514476 11.885907
7.797780 0.896371 3.345730
7.469838 7.844470 0.207451
2.610185 11.903012 2.782374
7.290155 10.172182 1.832550
7.872451 2.549668 19.297430
2.735012 12.440002 2.696794
7.899583 10.417103 11.145032
5.325022 4.176120 12.919870
6.505072 12.933134 8.537411
0.728061 9.984997 5.986656
8.516419 5.658254 15.775040
7.516469 7.571399 8.372027
4.835951 4.185400 2.599715
7.651809 1.463316 2.231604
7.087671 2.171472 1.295372
0.074328 13.386384 2.052834
8.827761 13.938663 3.297137
9.023592 1.568192 3.586940
3.179848 1.105757 18.267110
7.551409 0.623215 11.679112
6.839571 0.824574 18.610207
6.319559 12.859783 19.900678
1.596649 3.078071 3.133837
5.640361 13.851454 7.320863
9.060425 1.376091 13.239238
6.642229 3.571909 4.912413
4.898744 3.033192 12.657946
8.772318 8.374341 0.818337
7.532582 7.294402 0.762178
3.397656 9.050260 10.362956
3.073411 8.838165 19.537631
2.487585 2.213533 12.059051
2.654139 12.760381 9.644746
9.278284 8.291582 19.322580
6.406447 10.121768 15.666647
9.357547 6.730757 5.339583
3.182466 6.566087 2.863158
5.887439 2.975825 5.000615
5.810754 14.902982 10.310189
5.745424 14.502470 8.667060
6.489175 9.228295 2.577730
0.604913 10.276961 1.398278
6.304151 13.348147 19.670347
7.585745 1.058862 10.725921
8.049558 14.879459 13.330636
0.314120 1.690504 0.186137
1.219634 3.165445 3.208176
7.979829 10.693493 10.000811
8.121008 6.564294 9.557524
3.270916 1.590483 3.065101
3.126985 3.862423 16.359346
4.393166 4.474799 18.887899
2.228109 13.262803 17.553908
2.738170 5.769385 0.469605
0.067789 14.034781 1.385222
8.202573 11.849256 8.875955
9.925996 5.333803 6.420602
0.057032 1.067586 3.361283
5.000142 0.422756 8.538481
9.085704 2.638126 2.694947
9.923736 3.524515 1.829941
7.384169 12.697016 10.777172
4.084808 0.674158 18.601154
0.569699 3.951527 6.887033
2.651536 12.249999 7.876007
2.753386 0.732959 1.956151
1.919463 7.949984 18.185519
9.402087 3.684511 2.299845
4.876477 2.040371 5.221632
6.704807 5.546770 16.951904
9.842510 7.341824 19.198069
8.156507 12.852224 12.709598
2.497069 12.169286 16.681271
5.647950 12.191424 18.388258
8.746891 5.987912 6.139900
6.514886 2.532095 10.275457
3.171197 0.124886 18.313929
4.037732 12.022829 3.413961
7.387174 5.577936 9.865814
7.408355 0.491535 1.687601
6.842514 13.222268 17.309894
9.999025 14.962172 19.610900
4.443737 6.573412 8.322639
1.285605 2.980436 19.827528
6.431593 1.997261 4.366965
9.538155 7.882930 13.749482
5.063545 8.131954 18.202966
4.838101 3.866223 2.246359
4.431823 6.342312 3.546636
0.906912 10.233720 3.563601
2.879476 1.665884 9.695080
1.199965 14.586632 2.044936
9.191655 2.778376 0.346863
1.442925 4.760998 16.189544
5.490522 6.642266 2.441074
1.498519 1.334481 8.179340
0.465544 6.659991 17.397156
0.414323 11.723498 6.901986
2.773562 1.217024 4.842858
4.293265 7.198994 3.900511
7.252164 7.067765 15.181958
6.578143 12.326720 8.862358
0.694328 7.855053 1.322392
1.245869 11.634391 5.567428
1.668661 13.395382 15.917640
2.207791 12.898901 14.662902
7.130753 10.461232 14.564280
6.113683 0.924153 2.671971
2.765096 2.317203 9.807492
4.464344 9.875874 18.421512
0.485384 0.509105 13.253401
7.309099 5.798559 2.374585
8.011929 2.504552 10.763708
3.250324 3.752075 14.697928
4.544867 0.187855 14.653162
3.757822 5.063530 9.416065
4.884000 13.179073 0.367250
8.212601 3.831940 15.811742
2.906509 2.695448 19.104866
6.251196 5.986142 4.722730
0.962063 9.933035 4.046568
2.929347 11.809074 17.886694
4.687346 9.390401 9.956315
1.358511 6.312512 6.798285
6.555154 12.971827 12.162874
5.274079 14.525973 15.055397
1.074119 9.823767 18.141118
2.126366 12.528633 9.439863
8.995264 10.816316 0.976922
2.451652 5.379426 11.892863
4.487061 2.708055 11.265378
1.525652 6.971337 13.085464
2.053020 11.449905 15.394487
8.898130 8.486566 14.605102
4.333550 3.548774 11.335011
6.341011 11.577562 12.426379
8.656193 7.178146 7.111849
1.106316 4.465808 16.335061
6.669965 1.573593 0.588462
8.278368 1.151886 9.277288
2.620667 14.980401 14.560027
8.580301 8.523714 4.380767
9.034603 0.629531 14.235473
5.573734 2.107773 15.385656
4.449860 0.792231 14.725075
9.619340 11.275708 17.210231
0.374139 0.485608 10.505660
3.069957 6.249335 7.769919
7.232439 2.914214 14.776685
4.153006 5.908797 14.754476
2.927124 3.508542 2.177326
0.796241 1.043720 2.612981
2.251879 4.211535 7.091622
1.512747 6.853934 13.205628
3.543933 0.493038 5.514478
4.943127 12.818809 11.847943
6.892882 3.405313 13.377201
6.780363 1.822729 8.283455
8.250290 5.641727 15.209779
1.093741 12.019928 15.905002
2.877677 12.529992 3.990746
8.359585 11.097159 3.254588
8.138196 8.736605 19.663091
0.474178 10.476850 19.014591
3.296492 3.319853 6.233815
9.369031 1.330298 18.562067
9.769297 3.674336 12.355102
1.157728 13.543632 14.353824
3.434955 6.759536 2.901733
3.175461 1.893565 0.690007
3.049926 8.950146 18.277744
2.819921 9.493916 5.855615
6.080572 5.659203 14.238944
5.786519 8.497255 9.341633
1.858263 11.152906 9.727172
4.685530 6.749146 6.967108
7.173600 0.469762 15.832040
1.672430 1.382563 10.696603
3.456149 7.199924 1.816270
4.040617 8.506996 7.158168
4.764648 5.782418 2.413648
9.998268 8.024069 18.770494
7.327956 7.740407 7.915063
9.031725 12.114450 8.824975
5.703720 5.606090 7.529335
8.142909 2.023312 15.493202
2.578085 7.284000 14.273210
6.347670 13.351015 4.220233
0.251028 14.120759 8.717491
6.728031 4.693261 14.164243
9.918574 8.492019 4.789552
