-4.493712 2.192385 0.052989
3.147431 3.885058 3.707638
4.809330 -1.367604 5.211759
-0.065560 -4.999570 6.353370
3.043684 -3.966861 3.178144
-2.673543 4.225182 4.621751
-4.083147 2.885812 4.338553
-3.075310 3.942393 9.637053
-4.980233 -0.444159 3.742426
-4.997794 0.148497 9.668139
4.830647 -1.290290 0.365365
-4.809258 1.367860 8.106977
-4.406642 2.362521 0.146776
4.850764 1.212474 6.276077
-2.746418 4.178180 9.565641
-4.427804 2.322618 1.046857
0.464071 4.978417 0.573090
2.428909 -4.370400 3.602809
-3.423242 -3.644367 8.609583
-1.505792 -4.767871 4.322466
-4.373203 -2.423860 8.100367
-3.240860 -3.807470 3.948336
-4.752901 -1.552394 5.484419
-4.998006 -0.141179 3.650937
2.629701 -4.252608 5.861418
1.805209 4.662748 8.785611
4.752888 -1.552434 0.600402
3.581916 -3.488535 4.786093
4.591752 1.978842 9.634849
3.569283 -3.501459 2.202273
-4.500279 2.178872 8.126469
-1.148592 -4.866286 0.956339
3.068767 3.947489 6.173130
-3.474338 3.595688 8.243695
-1.985148 4.589029 6.906761
1.605405 -4.735259 3.449320
-4.993532 0.254237 2.397393
-4.862593 1.164126 7.486004
-4.914913 -0.918493 0.697109
-2.342580 4.417275 7.363088
-1.358773 -4.811833 2.035971
4.230121 2.665722 1.683747
0.735635 -4.945588 3.788465
4.803908 -1.386529 4.536296
0.901126 -4.918127 5.504802
-4.485614 2.208906 2.814353
4.781320 1.462526 6.734511
-4.995732 0.206548 5.301603
2.802722 -4.140622 3.144519
0.388181 4.984909 2.403970
4.644987 1.850432 3.071779
-3.957897 3.055331 4.440755
-0.632568 4.959824 9.852003
-4.126402 2.823615 5.876935
2.721622 4.194374 6.783196
-1.704912 4.700348 2.542051
-1.361203 4.811146 9.467622
-2.481790 4.340590 2.879301
-3.236230 3.811406 4.622409
4.579564 2.006886 9.857450
3.976376 3.031243 2.212148
4.880250 -1.087730 8.817759
4.988439 0.339824 2.364470
1.857900 -4.642005 0.506077
-2.549135 -4.301385 1.050206
4.578216 2.009959 4.185496
-0.370827 -4.986230 1.340860
-3.997427 3.003428 3.971040
-1.835535 -4.650894 8.033343
2.471749 4.346315 3.690137
4.023133 -2.968906 0.465213
2.706974 4.203842 8.230164
0.087279 4.999238 8.499435
0.685673 4.952762 2.616398
-4.760533 1.528830 1.106846
-4.451138 -2.277580 1.075529
3.706503 -3.355866 4.437986
-2.392651 4.390356 7.561362
-2.012878 4.576934 5.533203
-4.958586 -0.642205 8.142009
-4.882264 -1.078654 7.608199
1.398203 -4.800524 8.365365
4.987151 -0.358229 4.428707
-4.117907 -2.835990 7.645055
1.297527 4.828708 4.214643
0.206498 4.995734 0.197890
-4.113412 2.842506 7.573181
-2.732432 -4.187340 4.871911
3.859606 -3.178591 6.395130
-4.973336 0.515684 6.413943
4.268960 2.603072 5.763840
1.077181 4.882590 8.732933
-4.139164 2.804875 7.385049
-3.174660 -3.862840 0.293699
4.672997 1.778511 1.894091
-4.820399 1.328065 2.231257
-0.653426 4.957120 6.692054
-2.718421 -4.196449 1.091454
-0.215994 4.995332 2.486687
4.988274 0.342226 9.995601
-0.340310 4.988405 4.266560
-3.276144 -3.777152 6.347277
-2.787439 4.150926 3.149179
4.320289 -2.516962 1.493000
3.168103 3.868220 2.778654
4.222661 -2.677524 3.397162
-4.518111 2.141653 6.158774
-4.733706 1.609977 8.281546
-4.466621 2.247064 1.363710
-3.560976 3.509907 6.562517
4.125194 2.825380 4.340322
4.522127 2.133160 4.169462
-4.943281 0.750978 1.002698
-4.887193 1.056099 8.901334
-3.877155 3.157161 7.813602
-4.366873 2.435246 4.997137
-4.647792 1.843375 8.040922
-4.950922 0.698838 4.543374
3.797085 3.253022 5.655443
4.637035 -1.870270 8.620734
4.170711 2.757747 0.936392
4.076709 2.894900 6.445447
2.500156 4.330037 9.517244
4.996735 0.180663 7.101530
-4.388851 -2.395409 5.727840
1.085354 4.880779 0.139502
4.382311 -2.407353 8.781499
4.998244 -0.132494 5.976713
-4.714889 -1.664278 8.988509
4.876559 -1.104163 8.410473
-4.529908 -2.116585 8.403143
0.841626 -4.928658 2.146142
3.624297 -3.444484 0.119000
-1.046894 -4.889173 5.354605
3.937719 -3.081294 0.346589
4.986170 0.371625 5.753186
4.147100 -2.793128 4.451387
-4.024009 2.967718 8.056884
3.298509 3.757637 3.689118
-3.042132 3.968052 3.717195
-1.306003 4.826423 5.308491
2.101675 -4.536845 6.774137
4.091644 2.873752 7.320550
-4.051726 -2.929764 9.472545
4.773791 1.486917 3.209371
-3.853160 3.186402 5.262911
-4.116682 2.837768 5.752367
2.940970 4.043600 7.293043
-4.970361 -0.543609 6.142842
0.678319 -4.953775 4.795157
-0.567957 -4.967638 3.287707
0.177906 4.996834 0.466573
3.496447 -3.574193 4.987486
4.401903 2.371339 5.847330
-2.473653 4.345232 1.825892
1.718855 -4.695267 9.667009
3.834109 -3.209301 7.084790
4.999588 -0.064214 0.501821
3.551260 -3.519738 9.680526
2.162545 -4.508148 5.093205
-4.882291 1.078535 9.599448
-2.753130 4.173760 3.037210
4.637798 1.868376 2.289776
4.188137 -2.731210 7.733075
-4.250305 -2.633421 9.013549
1.141466 4.867962 0.818517
2.759891 -4.169293 8.259086
-4.392203 -2.389257 5.271100
4.989169 0.328920 8.495245
4.231827 2.663013 5.115692
-4.844022 1.239134 7.424939
-1.154151 -4.864970 9.719014
4.846875 -1.227927 0.158638
-2.502160 -4.328879 5.816007
4.854147 1.198858 3.975329
-4.726240 1.631764 6.555208
3.632809 3.435506 5.920152
0.319292 4.989795 6.544072
-4.498136 -2.183294 8.596613
-4.134625 2.811561 6.357334
4.449412 -2.280949 8.428774
4.587140 -1.989508 4.917885
-3.256178 3.794378 4.074769
-3.500985 -3.569749 2.690933
-2.156958 -4.510824 9.874101
0.747551 4.943801 3.804022
-3.504181 -3.566611 9.597846
-0.645339 4.958179 5.381966
4.671729 1.781837 4.542019
-2.597005 4.272653 8.109480
-0.310820 -4.990330 8.860849
1.170100 -4.861159 0.681749
-2.352367 -4.412071 5.276290
3.126515 3.901910 6.597736
3.651415 -3.415724 4.501485
-0.250198 4.993736 3.909154
-4.521738 2.133983 6.166032
3.938589 3.080181 6.380713
2.162037 4.508392 5.713227
4.768712 1.503127 4.082861
3.725083 -3.335230 7.250960
2.647247 -4.241708 5.678221
4.838140 1.261903 4.812267
2.412938 -4.379239 2.585715
-4.553540 2.065253 1.664182
-1.147291 4.866593 1.591292
-4.266498 2.607105 3.761434
-1.350590 4.814136 6.991630
4.803466 -1.388063 5.615177
-3.351147 -3.710770 1.540775
1.995424 4.584570 2.018841
-1.005499 -4.897854 5.530703
2.067242 4.552638 1.396220
0.532071 4.971609 6.605055
-0.267572 4.992835 4.183165
1.306249 4.826356 2.692863
-4.017016 -2.977177 7.924991
-4.939725 0.774026 0.919553
4.988141 0.344168 3.698219
-1.923447 -4.615230 9.542051
-0.386966 -4.985003 1.370346
-2.792833 4.147299 6.715971
-4.846876 1.227922 4.015641
-4.105424 -2.854031 0.536498
-4.522189 -2.133027 5.094918
1.899112 -4.625297 7.782940
2.115067 -4.530617 0.719928
0.033793 4.999886 5.401003
3.181212 -3.857446 2.956188
0.625263 -4.960751 4.609225
4.750134 -1.560841 8.764121
-4.544407 2.085274 0.445508
-4.479326 2.221629 7.759471
4.822610 -1.320012 0.854762
1.638608 -4.723872 2.904321
-0.036754 -4.999865 4.076058
-1.671216 -4.712434 9.227675
4.978591 -0.462203 6.964762
-2.028269 -4.570134 7.430673
4.617437 1.918143 0.833028
-1.308775 -4.825672 6.730653
0.226912 4.994848 3.467462
2.543198 -4.304898 5.241296
0.253769 4.993556 8.788731
1.236775 4.844625 4.236515
-0.191174 4.996344 8.422575
-0.599910 -4.963880 9.131211
-1.967766 -4.596509 2.207851
2.075069 4.549075 5.007653
0.922091 4.914239 4.870102
2.505082 -4.327189 2.850346
0.721085 -4.947730 6.138674
-1.347258 -4.815070 8.841437
2.477397 4.343098 9.919668
-4.890072 1.042686 7.535457
-4.233071 -2.661036 2.827752
4.030862 2.958404 9.650270
4.270480 -2.600577 9.293349
-4.778112 -1.472973 0.889191
2.786275 -4.151707 6.303072
4.632189 -1.882240 9.848842
2.699835 -4.208431 0.344891
-4.737535 1.598675 4.203322
-4.067758 2.907463 1.051905
-3.234215 -3.813116 4.349070
-3.019865 3.985024 2.208309
-2.239871 -4.470232 1.015882
0.871616 -4.923442 9.008298
-0.816170 -4.932937 9.212010
-3.999424 3.000767 4.136642
4.968934 -0.556501 2.720939
-0.633690 -4.959681 5.362417
0.968504 4.905303 7.380315
-3.847763 3.192917 2.466047
-3.683664 3.380920 2.768590
2.217295 -4.481473 2.650942
1.381452 4.805371 8.373583
-3.338778 3.721903 9.264681
4.832028 1.285108 6.103502
4.723569 1.639481 9.035454
0.715406 4.948555 1.165980
-0.018456 -4.999966 7.008137
-4.622980 1.904745 7.819887
2.827360 4.123838 9.017131
-4.720647 1.647876 3.703791
-2.789612 -4.149465 0.078093
-4.839747 1.255726 7.562793
-2.417569 -4.376684 4.222115
-4.764897 1.515174 1.879039
3.205406 3.837366 0.118012
-2.105459 -4.535090 8.070113
-4.409456 2.357266 8.997478
0.775405 -4.939509 1.055508
-1.675580 -4.710884 5.746853
-3.759125 3.296813 9.458010
-4.939129 0.777818 5.432432
2.813769 4.133123 2.183644
-3.502325 -3.568433 7.946034
1.066396 4.884957 5.329776
4.118911 -2.834532 9.246418
-1.349372 4.814478 9.837456
4.991378 -0.293504 3.425497
4.437737 -2.303583 1.806691
4.024801 2.966644 0.505705
-1.663472 -4.715174 5.411524
-1.174865 4.860009 1.318489
4.926730 -0.852837 7.159419
-4.150029 2.788773 2.036819
3.304598 3.752283 3.238965
2.349076 4.413824 5.163250
4.993172 -0.261221 2.378008
4.846631 1.228890 6.929938
3.363329 3.699732 4.581915
4.927722 0.847089 7.557550
-0.355513 -4.987345 7.248883
4.993328 -0.258219 9.116148
-3.377579 -3.686727 2.292157
3.423369 -3.644248 2.238142
4.810232 1.364429 5.844983
2.516282 -4.320686 5.740135
2.014479 4.576229 4.972239
4.347783 -2.469167 7.094730
4.999806 0.044067 3.272623
0.888283 -4.920463 3.197385
3.783084 -3.269292 9.768079
1.247054 4.841989 0.836299
-4.845177 -1.234609 7.976573
-0.777160 4.939233 8.310559
2.666669 -4.229525 3.767545
3.815957 3.230862 6.281945
-1.616941 4.731332 1.293063
-4.540202 2.094414 9.933762
4.167248 -2.762978 9.418836
4.180148 2.743422 2.174970
-1.896588 4.626333 7.144626
-4.493429 2.192966 9.870311
1.536617 -4.758026 5.067818
-3.629196 3.439322 1.008778
-1.189627 -4.856417 6.085822
2.860737 4.100754 8.357742
-4.997879 -0.145637 0.985664
-1.857688 4.642090 8.556834
4.739027 -1.594247 1.205437
4.996882 0.176544 6.011107
4.105135 2.854446 3.199585
-3.719608 3.341335 2.496785
-4.772737 1.490297 3.113289
4.099779 2.862134 2.947417
3.078590 -3.939833 6.692932
4.996793 0.179041 7.534455
3.584013 3.486380 3.121065
-2.712271 -4.200427 1.381815
-2.141908 -4.517990 7.061344
0.071099 4.999494 1.923819
-4.910065 -0.944065 9.829846
2.043043 -4.563548 0.122978
-3.338918 -3.721777 0.193534
-4.999961 0.019677 6.248829
4.454541 -2.270917 8.234324
-4.112250 2.844187 4.382766
-4.714252 -1.666081 4.351842
-4.659829 1.812731 2.853755
-3.321824 3.737043 5.583990
-0.137326 -4.998114 6.470839
-4.454468 -2.271060 2.473465
-3.265210 -3.786608 4.721396
4.816525 1.342046 6.472621
-3.541130 3.529929 6.670910
0.633653 4.959686 9.768035
-4.671563 -1.782273 9.946046
-0.255799 -4.993452 0.850424
3.421219 3.646267 2.642508
-4.092358 2.872735 5.770151
3.499911 3.570802 4.073444
2.905968 -4.068826 2.822090
3.257256 3.793453 7.205140
-1.356058 4.812599 7.601977
-0.294541 4.991317 0.320355
4.839315 -1.257391 1.341274
4.313692 2.528253 2.383403
4.113225 2.842777 5.300968
-1.494060 4.771560 6.003703
0.990880 4.900832 0.442318
-4.300263 -2.551027 0.543442
-4.959403 0.635865 3.706726
1.403572 -4.798957 9.089275
4.827326 -1.302662 8.396014
-3.155534 3.878480 5.593392
-4.024668 2.966825 2.698151
-1.703329 4.700922 7.815850
-4.383598 -2.405009 5.318671
3.722943 3.337618 4.233085
-4.334021 -2.493244 3.219235
-4.991706 0.287872 0.346128
4.582386 -2.000434 4.194860
4.463403 -2.253448 4.209691
-4.759428 -1.532268 4.767521
4.357742 -2.451548 3.430714
-2.693940 -4.212207 9.303569
-4.450759 -2.278320 4.773672
4.854280 -1.198319 5.573207
0.788269 -4.937472 7.270671
4.658068 1.817251 8.221875
4.755359 1.544851 3.775261
-1.061017 4.886128 6.965432
4.914561 -0.920376 1.577895
-3.534009 -3.537058 0.748052
4.935700 -0.799292 1.039513
-4.886524 -1.059191 5.266614
-1.851208 4.644678 4.950325
1.960175 4.599752 3.499743
4.989121 -0.329655 0.462488
3.760760 -3.294948 0.038643
-1.467860 -4.779685 3.819193
-1.202958 4.853132 1.591116
4.237050 2.654696 7.030428
-2.972188 4.020709 1.246945
-4.207548 -2.701211 7.253477
-4.228041 2.669020 6.904053
-3.758695 3.297304 2.406415
-4.653130 1.829857 2.241897
2.475819 -4.343998 1.330999
0.604590 -4.963312 8.680524
4.605879 1.945734 8.894172
0.656851 -4.956667 3.684483
-3.802582 3.246594 8.871583
0.098084 -4.999038 4.464211
-4.593444 -1.974910 4.189499
1.704932 -4.700341 8.161425
0.896248 4.919018 2.299159
-0.568427 4.967584 3.540345
4.978090 0.467572 8.664046
4.997184 0.167794 2.026718
-2.037078 4.566214 1.512446
3.052402 3.960157 0.808311
-4.278498 -2.587365 3.989834
2.911622 -4.064783 6.890940
4.650767 1.835856 0.990649
4.450043 -2.279719 6.643605
-1.413293 4.796103 1.370374
-4.265197 2.609232 5.015564
-3.965253 3.045779 8.825977
2.521640 -4.317561 8.704819
-4.905802 -0.965976 0.920974
0.622082 4.961151 8.790553
-3.532610 -3.538455 2.235984
-4.165673 -2.765351 5.918233
-4.995979 0.200496 7.477317
-2.951424 -4.035975 8.213594
-2.583657 -4.280738 5.225198
4.477946 2.224411 4.025424
3.442462 -3.626218 2.964792
-2.213752 4.483224 1.575447
-4.024789 -2.966660 3.442261
-4.998379 -0.127307 0.242457
-0.063015 4.999603 3.793427
3.698935 3.364206 2.764092
-4.763961 1.518115 6.908283
3.673430 -3.392037 3.538301
2.962995 -4.027488 0.225775
-4.167835 -2.762092 3.607470
4.894271 -1.022797 4.116222
-0.510968 -4.973823 7.412203
-3.959085 -3.053792 0.379828
4.769910 -1.499319 3.671164
-0.594220 -4.964565 0.474230
1.681192 4.708884 9.365904
4.297479 -2.555714 2.981600
-1.786382 4.669994 8.309166
-0.935247 4.911753 9.170918
1.901062 -4.624496 6.723513
-3.560783 3.510103 6.666126
-2.243083 4.468621 5.642629
-4.315205 -2.525670 0.989977
-2.506696 -4.326254 0.139850
1.356485 4.812478 6.100625
0.936288 -4.911554 8.608579
3.583267 -3.487148 5.168820
0.887459 -4.920611 3.933919
-4.725558 -1.633738 9.922271
-2.087509 4.543381 3.486131
-0.061105 4.999627 3.104174
2.849607 4.108496 8.892820
-4.884165 -1.070017 3.948291
2.852996 -4.106143 7.180884
-0.118908 4.998586 8.138199
-4.947747 -0.720972 9.826617
3.790078 -3.261182 7.015140
3.099955 3.923044 7.013198
-2.795760 -4.145326 4.606556
-3.407575 -3.659021 1.046031
-4.508298 -2.162232 1.098655
-3.054672 3.958406 0.620796
0.034867 4.999878 5.325494
-3.510211 3.560677 8.266152
-2.829403 4.122436 9.905939
-2.403566 -4.384389 5.648170
1.632007 -4.726156 2.254512
4.779755 1.467631 4.791993
-0.419713 -4.982353 8.623019
-2.660375 -4.233486 3.863386
2.121283 4.527710 5.269383
4.966102 -0.581231 6.324717
2.109155 -4.533373 7.256293
-4.847691 -1.224701 7.116236
3.109596 3.915407 6.151352
-2.811546 4.134635 9.196174
-2.138485 -4.519611 0.049539
-4.733092 1.611782 5.819477
1.050927 4.888308 2.303357
0.849328 4.927336 3.376850
4.033461 -2.954860 4.211092
-1.347350 -4.815044 1.209009
-1.659681 -4.716509 4.941249
-1.275747 -4.834508 3.132255
3.523461 3.547566 0.189698
-2.450925 -4.358092 2.041912
3.141261 3.890048 1.027502
0.970126 -4.904983 3.171228
2.441735 4.363248 7.019995
2.217483 4.481380 1.745650
-2.202147 4.488936 9.422770
-1.432114 -4.790517 1.277902
2.003715 -4.580953 9.515515
4.819982 1.329576 3.114461
-4.891913 1.034016 2.687120
4.871520 -1.126187 4.742171
-4.998900 0.104894 6.684387
3.107937 -3.916724 5.650358
4.706678 -1.687361 1.185558
-0.499315 4.975006 1.529937
-4.009559 2.987212 6.229905
-3.222446 -3.823067 1.446378
-3.796484 3.253722 7.853462
2.232489 -4.473924 8.432669
4.826118 1.307128 8.055263
-4.919187 0.895321 4.128744
-4.973427 0.514804 6.012661
2.172385 -4.503415 0.505865
4.734232 -1.608430 1.563648
-4.945707 0.734832 4.944387
-4.854119 -1.198971 9.836296
3.274157 -3.778875 7.227189
4.725053 1.635198 5.987713
4.750570 1.559515 0.957101
-4.390000 2.393304 6.246282
2.364054 -4.405820 0.191322
-3.261450 3.789847 0.866643
2.188676 -4.495519 9.841695
0.141851 -4.997987 3.464249
1.254347 4.840105 9.145364
4.979589 -0.451325 1.028042
-3.135941 -3.894339 0.624288
-4.223418 -2.676329 1.611026
2.248819 -4.465738 5.843701
-0.779260 -4.938902 9.000659
-2.463891 -4.350775 7.510213
3.725072 -3.335242 5.101457
2.484616 4.338973 4.731911
-1.660880 -4.716087 9.313437
2.401745 -4.385387 4.050562
3.928013 -3.093657 2.225995
-0.991091 4.900790 3.616658
4.920743 0.886731 6.563721
-1.352558 -4.813584 0.258110
0.072864 4.999469 1.352823
-4.542334 2.089785 7.570456
-2.787070 4.151174 3.856194
0.971158 4.904779 9.874227
3.323720 3.735356 7.893065
-4.945303 -0.737547 7.074175
-4.426583 -2.324944 4.639853
3.320942 -3.737826 6.211741
-4.581139 2.003289 4.161106
1.264554 -4.837448 1.635956
3.188328 -3.851567 0.845866
4.960535 0.626974 2.887858
-4.317935 2.520999 2.183479
-4.637486 1.869151 6.029505
-4.708720 -1.681653 4.716526
-4.585159 1.994071 6.653515
4.858379 -1.181590 9.867751
0.335150 4.988755 6.912907
4.193169 -2.723478 4.933567
2.772381 -4.160998 4.198007
4.088913 2.877636 5.936539
4.856240 1.190349 2.420279
4.581525 2.002405 6.913522
-4.490478 2.199002 8.491418
-0.116960 -4.998632 9.786304
-3.932370 3.088117 8.503576
3.298253 3.757862 5.334822
-4.487436 2.205203 0.381651
4.234786 2.658305 1.079612
4.935429 0.800963 5.904759
4.572694 2.022492 7.295170
4.819919 -1.329803 1.973134
-4.993698 -0.250959 1.658616
-4.967956 -0.565166 6.109162
-4.994353 0.237573 0.663311
-0.496808 4.975257 8.761994
-4.341231 -2.480668 4.170113
-3.849871 3.190375 9.381838
-2.430339 4.369606 7.062306
4.830580 1.290540 9.510277
-0.424910 4.981912 2.589143
-4.711361 1.674240 5.707638
-3.818958 -3.227315 8.584169
3.093580 3.928074 4.615929
4.830788 -1.289764 4.352464
4.357750 2.451534 7.575484
-0.161554 4.997389 1.530815
-0.396784 4.984231 6.943522
4.173740 2.753161 8.939653
-3.923472 -3.099414 8.379927
4.645293 1.849662 6.371300
-2.014715 4.576125 8.567154
3.824991 3.220162 9.757663
4.691443 1.729267 5.024532
4.881645 1.081455 7.459680
-2.992691 -4.005471 9.472336
3.485287 -3.585077 3.093991
1.906927 4.622080 6.307280
-4.730639 -1.618968 8.570382
4.233945 -2.659645 7.194547
-2.958658 4.030675 5.009453
1.645362 4.721523 4.646369
2.875190 -4.090634 0.439935
0.382321 -4.985362 3.749297
1.989990 4.586931 6.998133
3.578583 3.491954 4.357720
-0.001675 5.000000 0.823028
-3.160648 3.874313 3.277687
-3.492701 -3.577854 8.534280
2.917266 -4.060734 5.466467
-4.242434 2.646083 5.578307
3.411738 -3.655139 8.934924
-2.756957 4.171234 2.723843
-4.643322 1.854604 1.117722
4.934276 -0.808037 1.709155
0.959864 4.907001 3.228782
3.589848 -3.480372 1.244832
-4.274157 -2.594530 2.254801
-0.439823 -4.980618 5.376954
-4.059144 -2.919477 2.029901
1.324733 -4.821315 4.529712
-4.754028 1.548940 5.955608
0.382629 -4.985338 5.744635
2.739533 -4.182698 7.721318
-4.999043 0.097839 0.899838
-3.792731 3.258097 8.045810
-3.997054 -3.003923 0.519916
-4.775764 1.480567 0.631389
3.152466 -3.880974 3.228613
-4.778160 1.472816 9.245186
2.547473 -4.302369 2.918404
-1.172658 4.860543 4.187317
-4.627566 -1.893578 8.071239
4.548381 -2.076592 2.916116
-4.450179 2.279452 0.366281
-1.551796 -4.753097 5.669151
-4.731505 -1.616435 6.508108
-4.088850 2.877725 2.772131
-1.891093 4.628582 7.485897
-3.590568 -3.479630 9.132505
-3.615304 3.453922 2.940623
-2.182035 4.498747 3.376388
-3.763508 -3.291810 4.029790
-3.980891 -3.025310 2.985741
-0.215510 -4.995353 5.936337
2.930360 -4.051295 3.037230
0.103407 4.998931 2.002763
4.157681 2.777353 2.752615
2.677385 -4.222749 6.310866
4.825021 1.311173 9.419400
-3.961371 -3.050827 6.445176
-4.063358 2.913609 4.885811
2.734947 -4.185698 3.677690
-1.492025 4.772197 3.167333
-4.566517 -2.036400 2.509094
-1.425489 -4.792492 6.609785
3.548041 3.522982 2.597835
1.318378 4.823057 9.275250
0.126583 -4.998397 7.305876
-1.428891 -4.791479 6.340322
-1.469924 4.779050 5.939155
2.071312 4.550787 9.750704
-4.676601 1.769012 5.758507
-0.351174 4.987652 8.002389
-0.535009 -4.971294 1.577059
2.026397 4.570964 4.627471
3.727283 3.332771 0.758037
0.526368 4.972216 1.139642
4.880601 -1.086157 8.487070
4.661727 1.807844 8.360220
3.218776 3.826157 3.847409
4.999426 -0.075780 0.483527
2.373349 4.400820 9.764647
-4.506122 -2.166764 2.738525
3.099288 3.923572 3.704390
-4.944274 0.744414 6.520441
4.973811 0.511079 4.937787
4.034518 -2.953416 3.807330
-2.321821 -4.428222 5.958240
3.260363 3.790783 6.977410
0.972713 4.904470 7.820027
-3.030624 3.976848 9.036587
-2.229185 4.475571 6.166999
-3.531367 3.539696 2.519946
0.670514 4.954837 2.002291
-3.857453 3.181203 3.434278
-2.404410 4.383926 3.233456
1.153173 -4.865202 7.234287
4.171632 -2.756353 8.850267
4.533832 2.108167 7.109356
0.775959 -4.939422 3.138113
4.768118 -1.505009 2.229561
-0.595412 -4.964422 6.228895
-3.798853 3.250956 5.014678
-4.999465 0.073168 5.830083
-2.282401 -4.448668 9.100578
4.125668 -2.824688 0.699662
-4.645458 -1.849249 5.504166
1.406335 -4.798148 6.116645
4.625549 1.898499 7.509142
-1.759432 4.680214 2.858063
-4.980601 -0.440016 0.310214
-4.409072 -2.357982 5.815457
-1.465288 -4.780474 0.167296
3.431807 -3.636304 5.448973
2.613007 4.262886 8.860205
-2.909817 -4.066075 7.552902
-3.975690 3.032142 3.959579
-4.493196 -2.193443 8.945723
-2.627918 4.253710 8.600486
-4.323665 -2.511160 7.068144
-4.898449 1.002594 5.513356
-3.436111 3.632237 4.628030
4.879916 -1.089229 2.500736
-4.281712 2.582042 5.899251
-4.797952 -1.407004 1.927516
-4.833688 -1.278850 1.325285
-0.866880 -4.924278 2.325185
-3.358646 -3.703984 1.844721
-3.396306 -3.669483 9.095435
0.740475 4.944866 3.727589
-4.999878 0.034937 3.730079
-3.921992 3.101287 5.875401
3.421256 -3.646232 6.007472
-3.526263 -3.544781 3.699853
4.321993 2.514035 3.431003
-3.050143 3.961897 5.324449
-2.929615 4.051834 1.228666
4.169788 2.759143 3.192744
-1.246604 -4.842105 4.445958
4.376133 -2.418565 4.706448
-3.519417 3.551578 9.880821
-2.899414 -4.073499 2.662361
0.341923 4.988295 6.014755
-4.840166 -1.254111 9.441359
3.553762 3.517211 4.428440
4.407630 2.360677 7.018972
4.596449 -1.967906 8.838978
4.409950 -2.356341 6.997130
4.769447 -1.500792 2.312291
4.727864 1.627052 6.996674
2.910839 4.065344 9.700123
-3.769105 -3.285399 8.700490
4.662961 1.804660 2.853623
-4.990035 -0.315515 4.986613
2.996254 4.002807 5.097715
1.369347 4.808835 6.769550
-4.735723 -1.604036 8.646788
-4.994385 0.236885 7.725482
2.752020 -4.174492 5.821529
-0.623211 -4.961009 7.423885
4.998011 -0.141008 6.060281
-1.915613 -4.618487 3.181327
-2.766996 -4.164581 5.682353
-4.433181 -2.312338 3.309203
-0.596450 -4.964297 5.694408
4.884764 1.067275 6.191307
0.002899 -4.999999 4.570880
-4.953478 0.680483 6.313329
4.630935 -1.885323 4.903737
3.556399 3.514545 9.570372
-4.712901 1.669900 1.980779
-2.962300 4.028000 6.664185
1.421300 -4.793736 1.486475
4.804969 -1.382848 8.030356
-4.681595 -1.755753 9.982829
-3.996701 -3.004394 0.202763
-2.538358 4.307754 9.386013
4.803148 1.389162 1.503466
4.868094 -1.140903 7.788349
3.238434 -3.809534 7.211967
-0.800615 -4.935485 8.502397
-1.035413 4.891617 3.749517
-4.832327 -1.283983 9.408433
-4.992269 0.277942 0.062166
-1.339640 4.817195 9.430475
3.032851 3.975150 3.227124
4.401829 -2.371476 0.400845
-0.108620 4.998820 5.197876
3.267612 -3.784536 3.388419
2.601238 -4.270078 3.348365
-4.989038 -0.330901 6.944507
4.967326 -0.570673 3.507715
3.137356 3.893199 7.443129
2.718773 -4.196221 3.224528
2.006654 4.579666 4.352391
3.638421 -3.429562 4.253178
-2.224277 4.478012 1.755033
4.987381 0.355009 8.066482
4.044924 -2.939148 3.594151
4.837264 1.265260 1.093828
-4.974350 -0.505806 9.435261
-2.933028 -4.049364 9.535890
3.457596 3.611791 0.983260
3.146735 -3.885622 5.740280
-4.479924 2.220424 0.536766
0.562596 4.968248 3.108424
0.027096 4.999927 8.345525
4.160719 -2.772799 8.222076
4.995923 -0.201864 6.664466
-0.774722 -4.939616 2.687342
-2.717911 -4.196779 3.176712
-2.674067 4.224851 2.917480
3.559923 -3.510976 2.623124
-4.886908 1.057416 3.181777
-2.372501 -4.401277 8.885888
-0.508808 4.974044 7.290450
0.065308 4.999573 6.961507
3.203725 -3.838769 1.864366
-4.998635 0.116837 5.962940
4.170614 -2.757895 3.962707
-2.506558 -4.326334 1.936035
2.891320 -4.079249 6.308154
-4.991991 0.282891 4.302584
0.731164 4.946251 4.769422
1.728578 4.691697 4.451498
4.847120 1.226960 9.213032
-2.880970 -4.086565 3.679457
4.916690 -0.908932 7.974015
-4.011992 2.983944 9.094807
4.947082 -0.725519 9.083973
3.899598 -3.129398 0.168092
2.942894 -4.042200 6.911802
0.500332 -4.974904 7.269126
-3.434053 -3.634182 0.332920
-1.695052 4.703913 1.889449
-3.362771 3.700240 0.047170
-4.059750 2.918635 0.211997
3.401492 3.664677 0.143599
2.892867 4.078152 3.852172
-1.312094 -4.824770 2.386952
0.504784 4.974454 4.531348
0.196125 -4.996152 2.043904
-3.669219 -3.396591 9.381347
3.422297 -3.645255 6.627926
4.269499 2.602186 3.731176
3.798701 -3.251134 9.762099
3.774642 -3.279036 5.857462
-4.534636 2.106437 6.009171
0.756435 4.942449 8.377542
4.997460 0.159367 6.518592
4.951430 0.695225 6.248759
4.944909 0.740187 4.670630
-4.310962 -2.532905 2.211527
-2.480673 4.341228 9.819981
2.960227 4.029523 1.285257
-3.274000 3.779011 3.357917
-4.781080 -1.463308 9.851744
4.989532 0.323369 2.027485
1.366455 4.809657 0.081812
4.996161 0.195893 3.827864
2.884144 4.084326 7.121763
0.874120 4.922999 7.214738
4.607865 -1.941027 6.064653
-4.996434 0.188813 5.593106
-1.933741 4.610927 2.143090
0.242774 4.994103 9.966115
-4.950087 -0.704723 5.090459
3.191087 3.849281 5.803619
-4.784742 1.451291 5.418235
-3.190295 3.849938 2.169178
-1.716686 -4.696061 7.848775
-4.690190 1.732663 0.775750
2.992852 -4.005351 7.387627
4.039223 2.946977 9.145887
-1.557371 4.751273 9.223628
-3.803326 3.245722 5.869696
1.186608 4.857156 4.139154
-0.747994 4.943734 5.151932
-2.075135 4.549046 5.350000
-1.542697 -4.756058 8.141752
4.322279 2.513545 4.059953
-4.902011 0.985032 0.483944
1.021208 4.894603 5.345871
-0.049249 4.999757 4.273191
0.156050 -4.997564 6.521446
4.948807 -0.713662 6.003962
2.611525 -4.263794 4.885456
-4.086289 -2.881361 5.453112
-0.801406 4.935357 3.921959
4.431965 2.314667 3.412197
-3.888186 3.143566 7.482988
4.588330 -1.986763 4.842653
0.634960 4.959519 8.180576
-4.727813 -1.627202 3.645985
0.054192 -4.999706 6.682250
-0.251710 -4.993660 8.957768
-4.972097 -0.527492 4.986529
-0.956097 4.907737 4.242561
4.168353 -2.761311 6.311244
4.988882 -0.333257 5.321341
-3.653072 -3.413952 4.614760
4.983425 0.406782 7.724783
3.385709 -3.679263 0.210567
2.328700 -4.424608 6.164788
4.993966 -0.245576 3.772336
4.521127 -2.135278 6.077542
-2.158711 4.509985 6.238954
4.788467 1.438953 1.654046
-0.699651 -4.950807 5.249482
1.485939 -4.774095 4.304767
-3.277090 -3.776332 2.739807
4.660587 1.810781 6.309459
2.802220 -4.140961 0.123052
2.227680 4.476320 8.200604
-4.894049 -1.023856 0.251442
3.910110 -3.116254 4.209742
-1.933172 4.611165 0.181133
1.707713 -4.699331 4.463753
-3.552168 -3.518822 8.665893
4.996749 0.180266 6.612949
-4.684293 -1.748541 8.906726
3.900253 3.128583 7.122818
-0.337364 4.988606 8.968858
3.370972 3.692769 8.910444
1.708033 -4.699215 0.263761
-3.005547 -3.995834 4.111818
3.312867 -3.744985 6.686325
3.873657 3.161452 7.180919
-4.862749 1.163473 5.735092
-3.568923 3.501826 6.834287
-4.159525 -2.774590 4.414172
3.320462 -3.738253 7.285428
-4.968565 0.559784 3.190493
-2.971454 4.021251 0.781052
3.808959 3.239110 8.630762
4.859234 -1.178068 8.050468
-3.282691 3.771464 5.021245
1.266516 4.836935 5.945352
-4.913283 -0.927176 4.917560
-3.763233 -3.292124 9.897507
1.214319 4.850302 3.347927
4.232129 -2.662534 8.823812
2.360184 -4.407894 9.216872
3.514204 -3.556735 8.992053
-3.822036 -3.223669 9.929757
-2.698697 4.209161 4.893771
-0.587524 -4.965362 1.507827
4.692798 -1.725586 9.782252
-0.907485 4.916958 8.691702
1.012906 4.896327 3.209441
-0.926617 -4.913388 5.350991
-3.309372 -3.748074 1.970984
1.909476 -4.621028 4.718986
-1.591761 4.739863 8.294787
3.873776 3.161307 7.986941
3.020818 -3.984301 2.722745
4.594362 1.972774 2.208754
4.832800 -1.282204 3.981776
-3.704957 -3.357573 4.680193
-3.659750 -3.406792 8.951769
-3.171052 -3.865803 1.926292
4.469269 -2.241793 6.239774
4.999347 -0.080803 7.916216
-0.627878 4.960420 0.768160
3.273629 3.779332 5.082028
4.969348 -0.552792 8.727865
-4.977336 0.475532 3.693658
2.875586 4.090355 0.572475
-4.927594 0.847833 1.180807
-0.234028 4.994520 2.154421
4.992508 0.273614 6.885478
-4.321768 2.514422 5.058648
1.218576 -4.849234 8.730715
-4.158363 2.776331 3.392556
3.992921 -3.009416 1.685869
-2.770756 -4.162080 6.681075
-4.595688 1.969684 3.500156
2.686358 4.217047 7.307345
1.901335 4.624384 8.655349
-0.536351 -4.971150 4.592378
2.665978 4.229960 2.817152
-4.736952 1.600400 5.395099
2.741545 4.181379 0.620023
3.137430 3.893140 7.270058
1.623147 4.729206 8.806104
2.885470 -4.083389 5.522763
-1.131768 -4.870226 3.166182
4.977141 -0.477564 8.894760
-4.525646 2.125684 0.573060
-1.728169 4.691847 8.304708
2.011088 -4.577720 7.616620
-3.307982 -3.749300 1.857938
0.997377 -4.899514 1.293471
1.672210 4.712082 5.666058
3.061504 3.953125 8.914323
-4.780539 -1.465077 9.714083
0.605660 4.963182 1.276280
2.535139 -4.309648 9.239402
3.250615 3.799145 6.723873
3.787433 3.264254 7.942812
4.956026 -0.661671 0.114518
-3.996359 3.004848 7.824895
-3.413177 -3.653795 4.915189
-2.734401 4.186055 6.922025
4.320502 -2.516598 8.407713
-2.332916 4.422387 1.040646
0.082968 -4.999312 1.348358
3.358086 -3.704492 3.585778
-3.532038 3.539026 7.838478
4.970631 -0.541138 7.485794
-3.816614 3.230086 4.746024
-2.631815 -4.251300 4.403930
4.889416 1.045760 7.184642
-4.996237 -0.193950 0.209912
-1.333832 -4.818806 5.189851
4.615406 1.923025 1.970834
1.464653 4.780669 3.321924
2.665776 4.230087 5.245167
3.967637 -3.042673 5.310740
-4.470720 -2.238897 2.064819
-0.240566 -4.994209 8.742446
2.172886 -4.503173 2.539317
1.425164 4.792589 4.216360
4.639544 -1.864035 4.457532
1.916020 -4.618319 4.489634
4.970229 -0.544817 8.612141
1.820950 4.656624 1.224403
3.711374 -3.350478 5.454893
-0.592995 -4.964711 6.315286
-4.998835 0.107908 8.831054
2.116242 -4.530068 8.351868
3.234754 -3.812659 9.606356
4.892648 1.030534 1.017476
-0.531505 4.971670 3.323697
-1.274731 -4.834776 3.247920
-4.109183 2.848617 0.178181
-4.261403 -2.615424 6.537479
-3.386910 -3.678157 0.789449
1.645874 -4.721345 3.295839
-0.387911 4.984930 6.307528
4.583609 -1.997631 9.066623
-4.306961 -2.539702 5.828097
4.931198 0.826614 0.979826
-3.897266 3.132302 2.259912
-3.238578 -3.809411 1.214423
-4.882164 1.079110 8.505021
4.505296 2.168481 7.351454
0.730643 -4.946328 9.201711
4.147032 -2.793228 4.300704
1.823182 4.655750 3.977977
2.336764 -4.420355 4.870656
-1.915261 -4.618634 4.010106
2.981445 -4.013849 3.444257
-4.910752 0.940486 2.061517
4.605051 1.947692 0.516354
4.713813 -1.667324 7.195591
-0.258905 4.993292 5.886779
-4.297200 -2.556182 7.527724
0.268673 4.992776 5.376845
4.178512 2.745913 1.203036
-1.683342 4.708117 7.437398
-4.933908 0.810279 5.911674
4.867534 1.143291 6.658694
-2.260442 4.459866 1.185097
-4.750610 -1.559393 0.844165
4.563162 -2.043905 9.593242
-1.605186 -4.735333 2.055943
-0.759167 4.942031 9.265387
-4.108337 2.849836 8.776292
4.947144 0.725098 2.413985
2.784283 -4.153044 9.795081
1.354486 4.813041 3.362646
-2.805857 -4.138498 9.712804
-1.090947 4.879532 9.400472
4.969229 0.553858 5.690686
4.578054 -2.010329 9.408443
-4.198738 -2.714884 9.126512
4.854260 1.198400 1.754682
-0.304198 -4.990738 1.418136
-0.812332 -4.933570 9.487757
-1.509126 4.766816 6.007545
-4.475979 2.228365 3.218529
2.367056 4.404208 2.004873
-3.387946 3.677203 3.774847
-3.220708 -3.824532 5.699030
-2.916787 4.061078 3.883433
4.540851 2.093005 4.906488
3.017271 -3.986988 6.322791
4.459081 2.261989 1.801390
0.083608 -4.999301 5.649864
-4.082517 -2.886703 5.944991
-3.856997 3.181757 0.380177
4.934929 0.804038 3.551009
-4.936028 0.797261 6.092362
-2.805869 4.138490 6.195419
-4.583629 1.997584 2.660171
-0.360415 4.986993 7.709728
4.644680 -1.851202 4.347954
-0.849624 4.927285 3.115462
-0.395303 -4.984349 9.665505
0.630473 -4.960091 3.483714
-4.242096 -2.646624 4.478656
-4.540878 2.092947 8.997241
2.236622 4.471859 2.312612
-2.206769 -4.486666 6.846838
3.087791 3.932626 5.291856
-2.336277 -4.420612 1.644684
4.868419 -1.139517 3.212258
-4.751206 1.557576 2.188468
-4.612191 -1.930723 8.820846
4.204418 -2.706080 2.183591
4.969206 0.554064 5.864302
4.962086 -0.614574 7.598249
4.999948 0.022705 6.336929
-1.796683 -4.666040 7.991895
4.440627 2.298006 6.615051
3.354717 -3.707543 7.460331
4.417312 2.342511 1.775856
-4.679804 1.760520 3.535993
-4.935691 0.799346 5.656662
4.324221 -2.510202 8.644568
-0.780591 -4.938692 3.446049
-1.588177 4.741065 1.183102
4.219875 2.681912 2.530146
3.907430 3.119613 4.973435
-3.324070 3.735045 7.218700
2.456780 -4.354794 2.379502
2.423370 -4.373474 1.016709
-4.411041 2.354298 8.492605
-2.641145 -4.245510 0.668123
-2.244510 4.467905 9.027251
3.410153 3.656618 2.446637
4.848267 1.222420 2.145420
1.808515 4.661467 1.409224
3.905181 -3.122429 3.815966
-4.775572 -1.481186 1.136996
-4.427900 -2.322434 8.035959
-4.692137 1.727384 4.607465
-4.750499 -1.559729 8.394837
1.281548 -4.832974 8.731231
-4.997026 -0.172413 8.369395
4.893630 -1.025859 5.034746
-4.397277 2.379906 0.266704
-4.976327 -0.485969 4.108866
4.962851 -0.608365 1.175579
0.727611 4.946775 3.912689
-4.493293 -2.193243 2.319146
1.809858 4.660946 9.055699
1.281015 4.833115 9.594778
-2.152146 4.513122 3.809995
-4.720784 1.647481 8.149138
3.740472 3.317962 6.352685
4.637302 1.869608 6.768709
-3.922631 -3.100479 9.553615
-4.474610 2.231113 4.209382
-4.961990 -0.615352 8.509225
0.905638 -4.917298 7.070730
-4.632429 1.881649 9.928933
-4.996790 -0.179148 7.202585
4.959777 0.632937 9.823856
2.867204 4.096235 9.095883
4.895871 -1.015108 3.214631
-4.955217 -0.667698 1.999639
-4.998700 -0.114019 6.352664
3.746756 3.310863 5.250475
-4.670966 -1.783837 5.918818
3.998053 -3.002595 3.529712
-4.708771 -1.681510 0.035757
-3.661555 3.404852 0.460818
-0.814581 4.933200 0.619282
0.490028 -4.975929 1.013297
-3.499366 -3.571336 5.762679
-4.350388 -2.464574 5.293511
-4.664052 -1.801837 3.584833
-4.387570 2.397755 8.441966
-1.900784 4.624610 6.323896
4.341087 2.480920 0.826167
4.250796 2.632629 5.519764
4.061843 2.915722 0.030628
0.570870 4.967304 7.733800
3.638110 3.429892 3.159649
-4.746917 -1.570599 2.507722
-1.847210 4.646269 5.281332
3.788481 -3.263037 0.759957
-3.733426 -3.325888 9.239487
-4.373710 -2.422945 0.286935
-4.094153 -2.870176 3.183549
4.102289 2.858536 7.008136
-4.949448 -0.709203 4.017845
-4.856751 -1.188261 9.968336
3.574486 3.496148 2.916692
1.207997 -4.851880 5.534951
-0.920644 4.914511 2.985406
-4.999594 -0.063749 1.501273
4.986143 0.371991 1.210291
-4.621556 -1.908199 6.126505
4.417423 -2.342302 2.600949
0.462386 -4.978574 4.630447
-3.237273 3.810521 2.002940
-3.605212 3.464455 2.719187
4.927593 0.847838 6.631451
-3.746410 -3.311255 6.647097
-3.229343 -3.817243 5.197631
-0.111866 4.998748 0.948658
-2.164083 4.507410 2.748101
1.291511 -4.830321 4.674464
-4.943648 0.748561 7.747680
4.922974 -0.874257 4.530347
-4.396147 2.381993 4.834355
-2.502883 4.328461 7.495452
2.931109 -4.050753 3.820995
1.214710 4.850204 9.747663
3.489276 -3.581194 4.680343
2.491570 4.334983 1.723179
-3.322948 3.736043 9.893296
-3.529887 -3.541172 6.905174
3.865922 3.170907 7.900117
2.053760 4.558736 4.733707
1.223358 -4.848030 1.458776
3.871384 -3.164235 8.848350
4.913696 0.924984 2.291578
-3.707285 3.355002 4.087167
2.002997 4.581267 0.941079
-1.788233 4.669285 2.382716
1.682540 4.708403 8.164274
-4.575628 -2.015844 9.447656
4.667505 -1.792874 4.904176
-4.973360 -0.515451 2.123785
2.035503 -4.566916 5.016099
-4.911103 -0.938653 5.067572
-4.177819 2.746967 6.739825
-1.915716 4.618445 6.614279
1.061185 4.886091 3.530514
4.957127 -0.653369 1.937373
-4.084438 2.883984 8.426078
-3.537141 3.533926 0.086993
-2.699468 -4.208666 5.679025
4.999998 -0.004752 7.112860
4.792642 -1.424986 7.034233
1.431754 4.790624 1.117070
4.744558 1.577710 2.088111
-4.291474 2.565784 2.180231
-3.568314 3.502447 6.592463
4.758535 -1.535038 5.140961
4.465236 -2.249815 7.066086
2.532202 4.311375 6.714840
3.165012 3.870749 9.750118
-4.036651 2.950500 2.936524
-0.509795 4.973943 2.830196
4.015861 -2.978734 6.660178
-4.266052 -2.607835 3.086497
4.284706 -2.577071 0.972257
-4.641143 -1.860052 6.245909
-1.427925 4.791767 8.537897
-4.022181 2.970196 2.561921
4.999989 0.010283 0.015562
-3.870553 -3.165252 7.128479
2.282570 -4.448581 9.729276
4.918923 -0.896770 4.010471
2.144805 4.516615 0.571605
-4.880609 -1.086120 0.683577
1.315389 -4.823873 6.385342
-3.759598 -3.296274 1.839811
0.847028 -4.927732 7.720782
-4.951950 -0.691512 2.688459
-2.815950 4.131637 5.534652
4.870030 1.132612 8.372117
-1.550389 4.753556 4.887503
4.874041 1.115223 4.836663
2.327841 -4.425060 1.159771
-4.611186 1.933123 3.788602
1.898780 4.625433 8.116003
-1.452257 4.784449 2.283447
-0.313036 4.990191 3.394215
-3.199918 3.841943 2.172365
-0.363005 -4.986805 6.229474
-3.003735 -3.997196 0.552409
-4.383284 2.405581 6.654676
1.177229 4.859437 7.272534
-4.304858 2.543266 3.746485
-4.629950 -1.887739 1.908064
-0.690093 -4.952148 0.888192
-3.520861 -3.550146 9.689459
-4.027136 -2.963474 6.848745
-0.879935 4.921962 2.974706
-4.934447 0.806991 1.894278
-2.229016 4.475655 1.188446
-4.934687 0.805519 0.151441
1.582214 -4.743058 6.303430
4.789203 1.436501 4.708379
1.860064 4.641138 1.714724
0.247319 4.993880 7.052009
0.493710 4.975565 3.425494
2.300107 -4.439539 8.101521
-4.116240 -2.838410 3.420055
2.837400 4.116936 2.430520
3.201504 -3.840621 4.125333
2.324189 -4.426979 4.058000
-1.728157 -4.691852 5.891299
-2.126614 4.525209 8.002991
-0.053877 4.999710 5.579917
-4.205497 2.704403 3.176102
4.947950 -0.719578 1.633421
-4.929396 -0.837291 3.958871
-1.364752 4.810141 6.396559
4.112312 2.844098 7.914326
2.856150 -4.103950 5.773463
0.641633 4.958660 9.616146
-4.999708 0.054058 0.533935
0.710863 -4.949209 0.298740
3.338108 -3.722504 6.171655
4.777944 1.473516 3.969156
4.768754 -1.502993 2.411373
-0.939768 -4.910889 0.888324
4.992501 0.273733 3.368415
4.773159 -1.488944 9.804235
4.818356 1.335457 9.235799
1.351029 -4.814013 5.641806
-0.328456 4.989200 2.691862
-3.174113 3.863290 6.428130
-4.217148 -2.686199 0.542538
0.320934 4.989690 1.430481
0.392961 4.984534 0.253617
-4.463364 -2.253526 2.434881
4.668441 -1.790436 3.439252
-4.743389 1.581222 0.553734
-4.889588 -1.044955 3.156117
3.669723 3.396047 7.479685
-2.414226 -4.378528 6.301251
-4.297937 2.554944 5.931792
-3.695093 -3.368425 4.890629
4.962572 -0.610636 8.290522
4.994573 -0.232901 0.184167
2.666471 -4.229649 2.343450
4.310986 -2.532863 5.770517
-1.237996 -4.844313 6.119306
-4.392881 -2.388010 1.133040
4.169911 2.758957 4.967064
-0.100747 4.998985 5.417705
2.983698 4.012175 5.868779
-0.648428 -4.957776 3.184453
4.505131 -2.168824 2.874469
4.439145 2.300867 5.572747
4.554508 -2.063119 2.553862
-4.980864 0.437023 9.482403
3.674115 3.391294 7.295067
2.464324 4.350530 2.735687
2.977386 4.016861 7.273408
-4.341406 -2.480362 5.440215
-0.109590 -4.998799 3.456429
-4.698548 -1.709866 1.232822
2.256422 -4.461901 6.335974
-4.998806 0.109243 4.388890
-3.946492 -3.070049 3.604369
2.889513 4.080528 6.774012
1.471698 -4.778505 4.811324
4.547398 -2.078743 5.459709
-2.158734 4.509974 3.518043
4.386196 2.400268 3.619387
3.310617 3.746974 8.184794
-4.843369 -1.241682 8.139604
-4.004418 2.994100 1.843646
-1.932281 -4.611539 5.992855
-3.298140 -3.757961 7.336326
-4.999175 0.090799 0.971714
4.840147 1.254183 8.069074
-4.977581 -0.472953 6.881148
-4.729830 1.621328 0.602533
-3.700146 3.362874 6.942411
-1.767011 -4.677357 4.484042
-4.513115 -2.152160 8.518627
4.745192 1.575801 7.954333
-4.691428 1.729307 4.717857
4.526638 2.123570 9.051985
1.856074 -4.642735 4.292745
1.038499 -4.890963 8.579059
-0.355196 -4.987368 6.931893
-0.525102 4.972350 7.787239
2.118486 4.529019 7.626462
2.912251 4.064332 5.926910
4.739934 1.591547 8.193088
0.925063 4.913681 9.884548
-3.415678 -3.651458 3.476749
-4.910249 -0.943110 3.853827
-2.833978 -4.119292 6.448494
-4.625327 1.899038 0.286302
1.635368 4.724994 4.799101
-3.331635 3.728298 0.146916
-0.843716 4.928300 3.533663
1.675558 -4.710892 9.787948
4.680589 -1.758432 8.202176
4.216603 -2.687054 7.341246
-4.071475 -2.902256 8.687986
3.033391 -3.974738 4.903840
4.963954 -0.599298 5.440360
-3.861764 -3.175968 2.543975
-3.077074 3.941017 3.956132
-4.066379 2.909392 1.268114
3.060826 -3.953650 4.793134
2.443295 4.362375 9.074177
-2.485748 4.338324 3.110276
-2.201129 4.489436 1.495299
-4.397124 2.380188 9.501892
2.606890 -4.266629 8.095348
4.848308 1.222257 4.675571
-4.271939 -2.598179 2.117804
-0.239091 4.994280 0.160465
1.991297 4.586364 4.084344
3.444596 3.624191 0.416393
-4.948044 -0.718931 1.337164
1.837934 -4.649946 4.056436
0.958240 4.907319 2.441485
-1.012187 4.896476 6.105329
4.779280 -1.469177 1.067443
4.927738 -0.846994 0.624032
-2.395896 -4.388585 6.053568
-3.566079 -3.504723 2.860228
2.082776 4.545552 3.931918
4.999194 -0.089766 4.157003
4.848028 -1.223366 9.070205
-3.936429 3.082941 8.713764
-3.661013 -3.405435 6.437036
-0.155053 -4.997595 8.955246
-0.472851 4.977591 3.064993
4.391287 -2.390941 3.870051
-4.308162 -2.537664 5.632088
-0.399480 -4.984016 0.572540
-4.544767 -2.084489 0.037386
-4.993589 0.253127 9.293808
1.350271 4.814226 0.970200
-4.003460 -2.995381 6.201805
4.815872 -1.344386 2.220494
-3.022832 3.982773 8.985839
-1.622114 -4.729561 7.128504
-0.966688 -4.905661 8.708165
1.253431 -4.840342 9.393830
-3.972523 3.036291 6.312932
-2.088175 4.543074 7.159961
4.999964 -0.018905 1.165811
4.250175 2.633631 1.130896
-4.995928 0.201744 1.561509
2.093667 -4.540546 3.066633
4.943411 -0.750123 5.257868
-4.759680 1.531485 8.672722
4.782633 1.458227 1.122219
4.468819 2.242691 0.656699
-1.030374 4.892681 5.663588
4.981305 -0.431974 6.224629
-4.660406 1.811248 6.925200
-3.732623 3.326789 0.321657
-3.522386 3.548633 0.462225
4.788641 1.438373 5.071196
-1.496306 -4.770856 0.173181
-4.913139 0.927936 6.686686
3.279296 -3.774416 2.668336
-3.358337 -3.704265 5.146465
-4.065216 2.911017 9.492057
-4.553867 2.064533 6.412008
-4.772100 -1.492336 9.659544
-4.937185 0.790065 3.997088
-4.378777 2.413776 1.135151
3.276287 -3.777029 7.588361
-1.070903 -4.883970 1.948369
0.386792 4.985017 6.821973
-2.005104 4.580345 5.369907
-3.883649 3.149169 0.758897
4.878823 1.094116 2.447839
3.422301 3.645251 0.657895
-4.953710 -0.678791 0.966679
3.542623 3.528431 1.217535
4.276453 2.590743 4.485596
4.740999 -1.588373 2.100214
4.728070 1.626453 5.068927
2.885187 4.083588 6.538502
-4.786009 -1.447106 5.762012
4.947442 -0.723064 3.954348
-4.034079 -2.954016 7.589404
4.605114 -1.947543 5.850154
-1.314493 -4.824117 8.111098
3.742414 3.315771 0.588775
0.775066 4.939562 2.138421
-4.963541 -0.602711 4.112322
2.564191 -4.292426 5.351564
4.993796 0.249009 2.821283
4.991950 0.283605 9.102921
-3.155487 -3.878518 7.096812
1.755778 4.681585 5.544298
-0.684151 -4.952973 5.497431
-4.427005 2.324140 4.709912
-4.621407 -1.908559 2.941944
4.904380 0.973168 0.080064
4.290155 2.567989 2.175776
0.216215 4.995323 9.075716
0.018019 -4.999968 4.060073
0.257177 4.993382 4.295049
0.408265 -4.983304 2.005227
0.332176 -4.988954 0.659170
-4.287362 -2.572649 0.079173
4.903003 -0.980083 5.537866
3.657079 3.409659 2.471484
4.164878 -2.766549 7.735913
-4.252497 2.629880 1.536929
-4.962037 -0.614967 1.457519
0.562660 -4.968240 1.126345
-4.992038 -0.282063 1.824193
0.572395 -4.967128 8.653977
-4.242202 -2.646454 2.494743
0.576777 -4.966621 7.240515
2.779355 4.156343 1.735447
3.894149 3.136177 5.349518
2.667672 -4.228892 5.934339
-2.660172 -4.233614 9.621179
-1.859091 -4.641528 7.822905
1.301291 -4.827695 5.990123
-4.363248 -2.441734 4.607124
4.523204 2.130875 3.746796
4.582935 -1.999177 1.592952
-3.854224 3.185115 6.029827
3.949854 -3.065722 3.220267
3.318384 3.740097 4.019315
2.606825 -4.266669 3.689766
4.952566 -0.687087 2.901378
-4.258429 2.620263 1.398520
-4.787650 1.441668 7.182113
-4.999812 0.043348 0.521781
0.268481 4.992787 6.246120
-3.964494 -3.046766 7.000508
4.859127 -1.178508 3.624249
-4.838600 1.260140 5.801647
-4.699269 1.707885 0.412770
-2.803963 -4.139782 8.286330
-3.465529 -3.604179 0.001570
1.352235 -4.813674 5.746028
2.278684 4.450573 4.994004
-0.762496 4.941518 7.693314
4.905350 0.968269 4.951588
-4.122854 -2.828794 4.474658
3.565655 -3.505154 2.569816
-4.982862 -0.413627 8.549355
4.938829 -0.779722 5.777486
4.783501 -1.455377 0.241030
-4.893532 -1.026326 2.219209
4.221894 2.678733 5.087428
4.998577 0.119285 5.437569
4.534702 2.106294 1.690869
2.627553 4.253935 7.980053
-4.386162 2.400330 1.192784
3.977568 3.029679 8.308144
3.602047 -3.467745 4.659200
-2.566375 -4.291121 9.604941
2.561419 -4.294081 3.938381
2.810229 4.135530 8.387499
4.389352 -2.394491 4.039030
-3.589470 3.480762 4.874124
-1.043040 4.889997 4.820572
1.292694 -4.830004 9.075657
0.927739 -4.913176 5.464006
-4.583145 1.998694 9.213329
-4.505933 2.167158 1.385439
-4.007345 2.990182 8.299297
4.058624 2.920201 6.044721
4.831425 -1.287373 1.614680
4.984833 -0.389150 7.977063
0.980623 -4.902895 8.347837
-4.568976 2.030876 7.168840
-4.315214 2.525654 0.199961
3.267359 3.784755 8.912948
4.995059 -0.222220 3.511852
4.990547 -0.307317 9.707955
-1.914672 -4.618878 4.926196
-4.738518 1.595758 1.719629
2.417900 4.376501 4.636440
-4.092384 2.872698 5.737250
4.908787 0.950689 5.820486
1.305448 -4.826573 6.366317
3.642832 3.424876 9.116162
-3.025428 3.980802 9.812701
-4.996469 0.187869 8.856252
4.996298 -0.192379 0.401554
3.988640 -3.015087 6.780109
-0.449621 -4.979743 2.565104
4.490524 -2.198907 7.454333
-3.742092 3.316135 1.575148
2.438716 4.364936 4.390607
-3.248536 3.800923 8.920640
0.959116 4.907147 0.416289
-4.816169 1.343323 8.695772
-4.791770 1.427913 0.927613
-1.358836 4.811815 8.872495
-3.563987 -3.506850 4.278222
-4.997818 0.147691 1.950892
-4.116136 2.838560 8.730530
-2.451783 4.357609 5.057933
-3.462513 -3.607077 0.470180
-4.268342 -2.604085 3.162020
4.999687 -0.055974 6.611664
0.561030 4.968425 6.591063
0.611416 -4.962476 7.378935
-1.309107 4.825582 9.664771
-4.862842 1.163087 2.635012
-4.914629 0.920013 8.927045
4.104850 -2.854856 3.076903
-4.984870 0.388676 6.745150
-4.971305 0.534908 6.482814
0.457936 -4.978985 6.357415
1.911042 -4.620381 3.332540
-1.221243 4.848563 2.540503
4.506864 2.165221 3.839211
-4.801457 1.394994 2.646450
0.154991 -4.997597 8.009167
-1.433954 4.789966 6.749798
-0.644395 4.958302 0.883414
2.815014 4.132275 0.166004
4.116730 -2.837699 1.402395
-3.638799 -3.429160 3.266232
-2.524175 -4.316079 2.019616
-4.911886 0.934544 3.456863
4.377315 -2.416426 1.610199
0.877764 4.922350 7.041143
-0.788239 4.937477 5.078439
3.045375 -3.965563 0.113569
-4.225748 2.672649 8.050043
-0.544832 -4.970227 5.951549
3.248662 3.800815 4.624994
-2.455147 -4.355715 1.095501
1.569457 4.747294 5.563122
-4.989571 -0.322770 7.230075
4.983969 -0.400063 0.012158
-4.962966 -0.607425 7.274439
4.707097 1.686190 8.006705
-2.449007 4.359170 0.645974
-2.845622 4.111257 6.056389
-3.115201 3.910949 0.694622
1.465577 -4.780385 7.953128
3.411150 -3.655688 1.184629
2.309031 4.434904 1.726777
3.808118 3.240098 0.996833
-4.849520 -1.217437 9.608975
2.188475 -4.495618 4.590885
2.155432 -4.511553 0.048048
0.921869 -4.914281 3.996105
-1.569998 -4.747116 2.264620
-0.914610 -4.915637 6.414070
-2.600314 -4.270640 8.247603
0.644824 -4.958246 8.675863
3.100266 -3.922799 7.170130
4.994026 0.244354 3.318517
4.280084 -2.584740 6.887744
0.567159 4.967729 3.858233
2.566435 -4.291085 0.136815
-1.869950 -4.637164 4.118869
1.595245 -4.738691 5.845571
4.767970 1.505478 1.483352
1.030174 -4.892723 0.852473
4.393150 2.387516 2.580395
2.553951 -4.298527 8.117675
-4.493769 2.192269 7.210844
2.425345 -4.372379 8.105822
-4.884315 -1.069328 3.069477
2.305553 4.436713 2.629770
2.844800 -4.111826 0.410816
4.998360 -0.128069 5.958769
1.476160 4.777128 3.094216
-4.186115 -2.734309 8.224169
4.998395 -0.126673 5.570077
-1.505109 4.768086 6.781192
3.759757 -3.296093 8.197003
1.817814 -4.657849 3.014561
4.123391 2.828011 9.328533
4.966059 0.581598 1.610124
4.459772 -2.260627 6.667531
3.263855 -3.787776 4.206139
-2.824431 -4.125844 2.326612
4.995151 -0.220146 5.816333
3.948515 3.067446 2.834276
4.443144 2.293137 5.283608
4.239336 -2.651043 6.907193
1.752351 -4.682869 7.750345
3.532523 3.538542 5.694672
-2.339408 4.418956 4.719244
-4.812883 -1.355050 7.475733
-0.888647 -4.920397 5.965526
3.266639 3.785376 4.027101
2.321668 -4.428302 2.154882
-4.938507 0.781759 9.377227
-3.657637 -3.409060 0.242333
-4.595624 1.969833 3.837277
2.769576 4.162865 5.135862
-1.734855 4.689379 9.693202
-4.423239 -2.331299 7.636419
0.405636 -4.983519 0.137018
2.051850 -4.559595 5.634404
-0.853588 -4.926600 1.840865
4.301620 2.548739 5.492444
4.695306 -1.718750 1.213082
2.391386 -4.391045 6.813495
3.430556 3.637484 1.145342
-4.958763 -0.640836 9.452047
2.262864 -4.458637 4.804708
